ply
format ascii 1.0
element vertex 581
property float x
property float y
property float z
property uchar red
property uchar green
property uchar blue
end_header
5.9305 0.460996 2.10784 0 255 0
5.58655 0.501855 1.25257 0 255 0
4.78102 0.475626 0.853556 0 255 0
3.95544 0.368271 0.618798 0 255 0
2.62713 0.310151 0.261587 0 255 0
1.70899 0.0596277 0.0157251 0 255 0
0.677154 -0.024404 -0.134376 0 255 0
-0.449176 0.00110428 -0.0575525 0 255 0
-1.05287 0.0262638 0.0934855 0 255 0
-1.90689 0.0380837 0.283945 0 255 0
-2.51348 0.196833 0.459185 0 255 0
-1.65119 0.387189 0.0255569 0 255 0
-1.02876 0.57765 -0.108907 0 255 0
-0.207082 0.534306 -0.0756819 0 255 0
0.338217 0.546859 -0.120047 0 255 0
1.10464 0.588009 -0.192548 0 255 0
1.60123 4.89365 9.1752 76 76 74
1.66459 4.86435 9.19099 80 80 79
1.5188 4.86973 9.17114 69 69 68
1.58386 4.82237 9.19219 98 98 97
1.56538 4.78321 9.19955 16 16 16
1.57517 4.7617 9.2145 56 56 55
1.02593 -1.70826 9.21616 188 152 111
0.583813 -1.57431 9.56096 250 228 200
0.823555 -1.53103 9.62232 32 10 0
0.707354 -1.36756 9.52937 154 126 80
1.07296 -1.13412 9.65835 90 52 20
1.00065 -0.720703 9.61426 106 70 27
0.845164 -1.42212 9.45651 134 117 94
0.828694 -1.92146 9.33691 182 140 84
1.03009 -1.7422 9.31078 122 92 66
0.559166 -1.6855 9.57618 227 210 186
0.573481 -1.60428 9.44179 80 54 39
1.43077 -1.66397 9.63912 242 225 210
1.26092 -1.46201 9.71381 148 134 118
1.26224 -0.900325 9.71703 108 74 43
0.767169 -2.53621 9.45425 166 162 146
0.477927 -2.50171 9.38745 94 90 69
0.99308 -1.81136 9.27017 176 138 94
1.25778 -0.956302 9.74031 133 106 76
1.484 -3.38482 9.20339 182 174 150
0.548707 -2.08843 9.58656 168 142 114
0.772288 -1.8339 9.56894 154 114 68
1.95386 4.77244 9.24412 73 73 72
0.878005 -1.64335 9.56876 112 76 42
1.91899 4.78747 9.2322 65 65 64
1.54539 4.79894 9.19084 86 86 84
1.91277 4.7615 9.23702 66 66 64
2.27907 4.8566 9.25839 57 56 56
0.431083 -1.85973 9.49831 86 60 36
2.20796 0.616993 9.46959 20 20 0
1.53423 4.7831 9.19996 48 48 46
1.2828 -1.42473 9.68171 195 176 156
0.580754 -3.16604 9.19338 78 66 50
1.41453 -1.66695 9.58639 222 199 178
0.784676 -2.3072 9.32301 218 218 198
0.675165 -2.20552 9.42466 182 174 148
1.42414 -1.82706 9.62724 229 210 190
1.37001 -1.52393 9.65735 207 191 176
0.526394 -1.44652 9.40979 132 115 94
1.28482 -1.73206 9.42543 127 88 42
0.90934 -2.06638 9.36618 22 0 0
1.22317 -0.929508 9.4802 155 126 100
1.94305 4.85968 9.22943 61 61 59
0.63842 -2.33244 9.23186 186 172 152
0.781337 -2.1748 9.51696 38 15 4
0.531412 -1.44224 9.46503 161 143 119
1.96138 4.78855 9.22076 67 67 65
1.42798 0.0415993 9.84435 200 180 151
0.853549 -1.80987 9.61999 83 45 20
0.899442 -1.92554 9.33992 164 122 76
1.91547 4.86775 9.19145 68 68 66
1.98995 4.7659 9.24511 65 65 63
1.49023 4.88668 9.1814 45 45 44
2.28593 4.86521 9.26133 56 56 55
2.0091 4.78895 9.25232 76 76 74
1.46885 -2.46163 9.51644 226 226 204
1.4068 -2.25443 9.47692 225 219 194
1.41181 -1.69405 9.62498 163 137 118
1.4075 -3.61667 8.97566 82 70 47
1.11794 -1.3598 9.47506 118 90 67
0.550732 -0.163785 7.91692 220 204 180
0.608692 -2.00485 9.42298 120 90 63
1.21822 -1.25547 9.55355 105 73 42
1.2385 -1.36529 9.57791 110 76 48
0.610088 -0.427595 9.52743 138 108 74
0.939417 -1.81809 9.27504 91 49 2
1.01114 -0.86458 9.59573 100 64 38
-0.0849868 0.842058 7.129 34 34 16
4.74842 8.1336 16.2827 64 64 62
0.777169 -0.387801 9.8437 174 146 104
1.4239 -2.73092 9.3247 114 113 90
0.874617 -2.56413 9.19487 44 52 20
1.59926 -3.54141 9.35957 196 180 156
0.736486 -1.25883 9.31958 142 124 96
0.736407 -2.28323 9.21183 88 84 54
1.07033 -2.03306 9.17455 35 7 0
0.898004 -2.0556 9.27117 129 97 77
0.636627 -1.9429 9.44093 98 54 20
1.095 -1.80643 9.30041 98 62 34
0.929162 -1.76775 9.25839 180 138 82
0.785526 -1.73 9.27163 162 116 71
1.43464 -1.72074 9.46759 112 80 56
0.958572 -1.64331 9.25926 127 89 35
0.954192 -1.49374 9.3142 106 70 38
0.696578 -1.47459 9.48092 218 193 164
1.08556 -1.26194 9.63261 234 204 180
0.867291 -2.24462 9.28044 200 196 150
0.979616 -2.09886 9.30749 88 60 28
0.725475 -0.608162 9.56007 165 132 84
0.842842 -2.28578 9.36449 190 184 144
0.641643 -2.19495 9.3236 72 68 42
0.520222 -1.92562 9.54016 171 140 120
0.539043 -2.07287 9.63376 151 124 96
1.06886 -1.85101 9.23725 100 62 38
1.11108 -1.3281 9.525 124 84 50
0.745634 -2.00269 9.42935 208 174 134
1.51161 -2.07672 9.57591 48 39 16
1.04329 -2.05478 9.15958 127 100 74
0.597495 -2.10704 9.62086 218 186 164
-0.248726 5.38341 8.87641 154 146 127
1.15309 -3.43146 9.2447 123 120 90
0.390759 -2.86748 9.49747 114 104 80
1.52286 -3.38236 9.23692 193 179 155
1.14979 0.315188 8.01903 110 113 77
1.44601 -3.31572 9.24768 76 66 40
0.808781 -0.284782 9.02687 139 104 71
0.842181 -1.96877 9.27429 140 102 82
0.572597 -1.85401 9.53874 76 36 10
1.48575 -1.69309 9.42943 206 178 152
1.21847 -1.47091 9.2855 144 116 100
1.08041 -1.19807 9.62113 223 194 175
1.25038 -0.969971 9.65598 143 116 84
1.17652 -1.41858 9.52355 18 2 0
0.233622 0.0438807 8.00262 114 119 78
0.851652 -1.66178 9.32156 80 38 0
0.742043 -1.70115 9.19754 121 72 42
0.609474 0.199189 8.78291 10 14 0
0.910713 -1.8346 9.24634 166 122 64
0.924839 -1.88386 9.24407 105 64 10
0.385044 2.69435 8.2854 76 75 73
1.03 -2.09957 9.12208 115 91 58
0.446976 2.43877 8.16039 70 66 65
0.204293 1.73925 8.02298 84 82 80
1.34827 -2.43565 9.27809 222 210 186
0.70689 -2.24363 9.13911 212 198 172
0.851977 -2.01522 9.32663 114 84 66
0.989892 -1.56282 9.32726 164 115 66
1.06409 -0.997561 9.59659 186 156 126
-0.0198879 -0.250679 8.11474 219 208 176
1.29812 -0.119827 9.82685 110 81 46
0.609318 -2.81178 9.40513 150 138 112
0.923644 -2.10647 9.23596 56 22 2
2.9953 4.84173 9.34315 48 48 46
0.446122 -2.85544 9.46598 121 112 88
2.13542 0.316757 8.34078 204 176 136
-0.828465 3.61191 9.77764 22 20 16
0.406459 -2.57709 9.50046 212 193 172
1.43862 -2.23006 9.73807 201 194 164
0.832232 -2.0924 9.23369 112 88 68
1.41562 -1.95319 9.56643 212 192 174
0.196924 1.8838 8.07137 76 76 74
1.42112 -2.27134 9.44073 212 198 172
1.13794 -1.39703 9.47809 20 3 1
0.978766 -0.829518 9.59114 66 30 2
0.713871 -2.76623 9.50298 83 83 58
1.17844 -2.09548 9.56914 90 62 44
0.477917 -2.28868 9.66038 145 136 107
0.990353 -3.47985 9.29856 210 201 173
0.664651 -2.00204 9.34465 66 27 9
-0.403086 5.39996 8.94996 94 87 70
-13.1155 15.7639 25.903 20 16 6
0.706858 -2.31004 9.42741 178 170 135
2.89954 3.92804 7.46118 56 57 54
2.01754 4.57116 9.65729 29 28 26
0.209582 5.39705 8.89511 192 184 162
-0.343854 3.32318 5.11465 166 160 146
-0.724496 3.43085 9.57282 154 144 128
1.29961 -0.879051 9.73467 128 90 60
1.28569 0.0057613 9.53856 68 38 14
1.42183 -0.0716099 9.88066 70 33 7
-0.713918 3.33307 9.35126 157 142 123
-0.904725 3.29577 9.7179 46 40 18
0.497967 0.0487751 7.53702 22 28 2
-3.69578 5.53941 8.64263 97 90 81
1.10141 -0.921595 9.70499 187 153 120
1.0094 -0.700254 9.61548 55 18 0
2.0714 5.28943 9.1345 101 91 78
2.07234 5.2916 9.18637 166 156 148
0.599773 -2.07535 9.61947 70 36 16
1.35826 -1.96811 9.39536 80 56 40
0.528512 -1.92856 9.6107 214 187 160
1.4476 -1.89113 9.57046 206 182 159
1.37428 -1.87258 9.58678 174 151 134
1.0477 -0.425331 9.3866 77 42 18
0.653691 -1.61243 9.49176 196 155 105
1.15676 -1.31101 9.60243 170 128 90
0.696029 -1.69299 9.38368 126 80 30
1.07754 -1.69556 9.18809 70 36 0
0.634597 -1.77518 9.47939 107 62 22
0.560962 -1.82661 9.66979 216 186 153
0.788057 -1.75607 9.24415 159 112 67
0.816368 -2.14479 9.22629 140 126 50
0.976619 -1.40222 9.42551 72 46 26
1.13421 -1.61904 9.26305 91 54 20
0.410578 2.45826 8.15557 78 76 74
1.32364 -1.72167 9.44244 131 91 54
0.985305 -0.991071 9.52567 64 24 1
-2.2252 1.95084 8.05766 126 93 29
1.76189 5.33688 9.1937 22 12 8
1.38961 -2.63622 9.13434 34 31 11
0.548765 -1.86111 9.55828 66 25 7
1.41077 -1.70175 9.40105 65 32 8
0.890726 -1.31302 9.58846 150 115 81
1.35419 -2.61315 9.12963 25 27 4
1.55729 4.85136 9.25248 68 68 66
0.766834 -2.01093 9.28629 163 128 61
0.907003 -1.98443 9.23091 157 120 94
1.10952 -1.20828 9.58065 156 128 97
0.703371 2.03289 7.95409 68 66 64
0.279086 2.85778 8.35348 85 84 82
0.716309 2.06035 7.96851 72 72 70
0.0298543 2.25106 8.22395 81 80 78
0.567384 2.56618 8.17488 68 68 66
0.336628 1.76876 7.97855 66 66 64
0.0648727 2.24511 8.19733 83 82 80
0.657724 1.13365 8.19263 37 39 26
0.517247 1.50496 7.85879 72 71 69
1.09143 -0.876619 9.64475 92 57 23
-0.0921543 1.93539 8.21243 84 83 81
0.929035 -0.809853 9.7561 143 96 54
1.0062 -0.434141 9.50705 128 90 46
0.952646 -3.0996 9.46005 83 85 56
1.58486 -2.74157 9.12486 126 114 86
1.65339 4.94872 9.35032 49 49 47
0.681295 2.20176 8.01083 73 72 70
1.11223 -0.322606 9.50127 90 66 28
0.492351 -0.706806 9.62526 195 170 139
-0.886141 5.4355 8.88323 148 138 117
1.44741 -2.46655 9.61336 182 177 148
1.43472 -1.86712 9.55845 140 118 94
1.21612 -1.42744 9.199 122 96 80
-1.75685 2.6068 8.98927 97 82 52
1.1645 -1.37104 9.41411 136 100 76
0.542835 -3.17531 9.10484 110 93 67
-0.194536 0.962241 6.87144 10 13 2
0.0888116 1.93822 8.11682 76 76 74
0.439554 2.50525 8.15411 78 78 76
1.03475 -3.50905 9.12269 78 62 34
1.44649 -2.57319 8.9252 150 140 115
1.26998 -3.52273 9.20317 173 161 134
0.0611129 0.0199184 7.89451 96 99 80
1.15309 -0.184686 9.67629 138 110 71
1.29608 -0.812591 9.69798 144 110 76
0.890381 -1.31728 9.58746 160 124 90
0.836356 -0.789745 9.81815 184 156 121
-3.21092 2.53642 13.8038 112 104 75
0.107233 -0.304703 8.16092 102 94 58
-0.036443 0.00680456 7.78263 25 30 6
1.0575 -0.893121 9.71494 166 130 96
0.731406 -1.3223 9.59868 207 182 154
-0.473445 -0.0603265 7.4421 56 62 18
1.0513 -2.46393 9.06828 118 124 89
1.53012 -2.08462 9.32262 94 78 50
0.704135 -2.16724 9.6181 184 162 126
0.554656 -2.02894 9.66483 134 106 76
0.849236 -1.94834 9.2652 93 54 23
1.43969 -1.96613 9.5339 47 24 8
0.605309 -1.93203 9.46253 136 96 70
0.853069 -1.87018 9.2596 176 130 76
0.673392 -1.88157 9.38075 226 182 137
1.33197 -1.89545 9.43523 50 28 18
1.39698 -1.90174 9.51848 46 24 20
0.70712 -1.85122 9.37124 202 157 110
0.727433 -1.69186 9.32028 186 141 94
1.42738 -1.64242 9.37124 142 111 85
0.909331 -1.26509 9.53024 88 47 11
0.776795 -1.26271 9.66474 147 115 80
1.07885 -1.17372 9.64917 130 100 72
1.20935 -0.985639 9.61018 200 166 129
1.21879 -0.959866 9.79548 203 166 132
1.05817 -0.682375 9.65312 128 94 64
1.13481 -0.176342 9.47075 134 100 64
1.29689 -0.11304 9.67721 81 51 16
0.706941 2.8905 8.28123 70 69 66
0.568098 1.59724 7.89425 66 65 63
-0.335318 2.00737 8.40046 72 70 66
0.759814 1.92133 7.93252 68 68 66
-0.0422037 2.20425 8.24892 74 74 72
0.811057 2.18586 7.99676 80 80 78
0.227327 2.25472 8.13841 78 76 74
0.860214 2.23951 7.98565 82 80 78
0.713197 2.33432 8.04531 69 68 66
-0.254473 2.49551 8.50191 76 75 72
0.814336 2.44572 8.09363 64 63 60
0.568411 2.50876 8.14994 62 61 59
-0.294884 2.83018 8.70409 78 77 74
-0.215825 5.35882 8.96299 55 50 38
0.970572 5.3572 9.12698 150 144 132
0.840938 -3.07965 9.22721 212 200 175
0.79108 -3.03308 9.4226 198 190 162
2.48137 5.08913 8.89435 122 118 112
-0.904579 3.5357 10.0614 146 134 116
0.429502 -2.45179 9.28684 70 53 26
0.687202 -2.16153 9.57857 209 188 158
2.61133 4.8166 9.22299 30 30 28
0.460934 1.99354 7.9728 73 72 70
0.582833 1.18024 8.68321 28 28 23
0.71572 -3.54893 8.86417 82 71 42
0.71808 1.16545 8.415 42 46 28
1.75353 -3.12108 9.28666 190 172 144
0.914085 -2.09158 9.32548 94 67 31
0.642142 -2.11586 9.63214 115 92 70
1.10909 -1.55384 9.20941 152 107 66
0.218043 2.86072 8.40363 82 76 76
0.51173 2.07571 7.97736 69 68 66
0.0934132 2.3217 8.21112 72 70 68
0.801915 2.30442 8.03624 58 56 54
0.765739 2.44711 8.10069 66 64 62
1.60892 -1.95819 9.61124 70 52 24
0.636187 -2.54529 9.60792 118 119 89
0.362691 2.03004 8.04314 64 63 61
0.348367 2.22031 8.07097 75 72 70
1.44268 4.85236 9.09869 42 41 39
1.11411 -2.09797 9.22039 118 94 67
0.73451 2.5923 8.1473 74 74 72
1.10748 -1.64021 9.54377 140 94 38
1.3282 -2.45505 9.36879 214 208 180
0.64979 -1.92686 9.53182 116 71 44
0.323047 3.00584 8.41803 79 76 74
1.46616 -3.25854 9.48323 190 176 150
1.31726 -2.72459 9.28255 184 174 150
1.45017 -3.15403 9.46903 140 125 98
1.40894 -2.04884 9.70493 88 64 42
1.43996 4.80889 9.01866 31 31 29
-1.9921 2.85818 9.63025 38 44 14
1.4569 -3.27939 9.64664 190 180 155
1.51211 -3.26748 9.63602 95 83 56
1.40713 -3.03025 9.405 201 194 174
1.35315 -2.79346 9.5798 204 196 174
0.607045 -2.76172 9.47824 108 107 80
1.2173 -2.43822 8.93321 70 72 44
1.60871 -2.23053 9.66989 119 105 77
1.34753 -1.63392 9.3541 54 22 0
1.38513 -1.63839 9.53545 151 122 96
1.21066 -1.41896 9.26262 30 8 0
0.849154 -1.26277 9.68207 169 132 94
0.821901 -1.23628 9.65412 178 146 104
0.894191 -1.21157 9.4999 99 61 17
1.11597 -1.18751 9.49714 120 90 62
0.815895 -1.15688 9.35906 192 152 106
1.03155 -0.961656 9.57633 78 40 10
1.05257 -0.803205 9.54722 210 178 146
1.05076 -0.746062 9.71112 139 109 78
1.01107 -0.436102 9.38333 102 68 30
2.06125 5.28033 9.19283 114 108 94
-1.11286 0.225873 9.72219 206 198 166
-0.53613 0.661822 7.21173 112 112 68
-0.599844 0.694637 7.20212 136 140 98
3.11525 1.49601 8.99597 124 122 94
0.166807 2.78964 8.31362 73 70 68
0.293223 2.16259 8.06407 73 72 70
-1.74393 2.58273 8.97357 152 140 107
-0.109508 2.62819 8.41314 108 108 106
0.569331 -3.11477 8.99032 72 56 30
-2.55259 5.39602 8.56805 125 118 104
-0.855736 5.33683 8.76314 167 162 147
1.1555 -3.40483 9.35581 206 194 167
1.35563 -3.22966 9.31575 199 190 168
1.57201 -3.4516 10.1299 96 82 55
1.34075 -1.97084 9.41102 50 26 10
-0.185345 0.163392 7.45487 52 58 24
1.26372 -1.45443 9.14577 49 22 5
0.913523 -0.665851 9.38833 166 128 88
1.87768 -3.83439 9.88321 110 92 65
1.0743 -0.499283 9.612 120 88 53
0.924594 -1.57496 9.52058 55 21 0
1.74096 -3.01584 9.0168 95 76 48
0.390685 2.09605 8.02185 64 63 61
1.54913 0.0180412 10.1284 184 160 129
-0.111397 0.0688515 7.28896 70 77 35
1.08841 3.60004 7.98837 92 79 16
1.37443 -2.41554 9.33071 34 26 3
0.0824283 0.0148522 8.11853 18 22 0
0.123162 0.0142164 8.07479 102 106 73
-2.34032 2.09288 8.85665 180 159 126
-2.18983 1.89545 8.88869 179 170 142
1.37741 -1.58939 9.28252 209 182 156
0.428596 -0.171732 8.39195 144 128 91
1.39095 -1.85265 9.52703 36 11 1
0.60152 -1.72001 9.71526 194 159 116
1.03606 -3.53539 9.13038 118 100 72
0.793102 -1.52129 9.61237 130 102 71
0.937608 2.28641 8.02253 58 56 54
0.295528 1.84838 8.03176 75 74 72
0.726773 1.98326 7.95694 62 60 58
0.508429 2.49223 8.16112 66 64 62
1.42202 -2.03448 9.48517 193 176 152
0.884258 -1.24887 9.53243 90 50 8
1.45687 -2.50935 9.51151 40 34 8
0.818894 -3.12344 9.08582 54 55 22
0.33051 -0.0755917 8.14218 16 20 0
2.14155 4.77794 9.27892 49 48 46
0.830353 -1.33247 9.59273 213 187 152
0.602798 -1.66187 9.65732 152 109 58
0.861533 -1.31084 9.3697 127 96 69
0.696947 -1.9192 9.39365 186 142 104
1.72785 5.33649 9.09593 158 148 129
0.844431 -3.25255 9.09486 141 144 118
1.18113 -3.46406 9.43733 206 204 173
0.41787 -2.4656 9.36721 100 84 56
-0.53357 0.127335 7.95946 62 66 45
1.0214 -0.588728 9.51647 129 96 65
0.76624 -1.32659 9.5096 210 180 146
0.609745 -1.71902 9.57974 127 86 44
0.964312 0.315399 8.45785 108 112 90
0.498886 1.5895 7.92113 68 67 65
0.831872 2.38294 8.08482 59 58 54
1.11605 -0.298758 9.41391 95 62 22
1.1115 -0.205075 9.28832 178 146 108
0.948288 0.33284 8.38039 78 83 60
0.147648 0.800646 8.26889 20 24 2
1.07123 0.598937 8.7442 76 80 65
1.43983 0.118805 9.84072 114 92 58
-0.44006 5.65446 9.40525 122 116 106
0.90597 -3.22875 9.68195 209 201 176
0.827471 -2.95645 8.86767 66 64 34
0.843223 -1.49502 9.54404 230 200 169
1.35155 -1.5064 9.57817 188 162 135
1.30321 -1.4946 9.51439 34 8 2
0.737155 -1.66362 9.48396 116 72 16
0.671118 -1.53318 9.66569 118 86 58
0.875276 -3.40057 9.52271 200 196 168
0.857023 -2.91638 8.8665 38 38 10
0.710472 -1.33978 9.83602 158 122 90
-1.21362 1.34271 8.58166 68 59 28
1.12748 -2.42799 9.04148 42 46 16
0.883513 0.463606 8.00375 72 76 62
0.504472 -0.210703 8.2294 94 86 50
-0.220204 2.77722 8.63697 74 72 69
0.0373758 2.59898 8.35752 68 68 66
0.0793333 2.49405 8.29912 82 81 79
0.510171 -0.235221 8.10597 168 156 118
-0.234394 1.71997 8.26166 84 82 78
-0.368071 2.04415 8.3917 98 96 92
-0.294183 2.24234 8.39299 83 82 80
0.605868 2.04573 8.00742 68 66 64
0.389916 1.54982 7.88356 64 63 61
-0.273442 2.70007 8.58502 76 75 72
0.791639 1.4063 7.48072 104 108 80
0.279046 -0.210244 8.5479 98 92 62
1.10275 0.537453 7.31431 120 121 79
0.754471 -3.66637 9.92797 114 98 69
3.41794 5.17696 9.19228 130 125 114
1.0342 -3.4632 9.37064 206 199 174
-0.435749 5.42617 8.98409 110 103 92
1.70111 5.32785 9.20628 158 150 139
-0.935561 1.19814 8.69716 29 30 4
2.09625 0.545415 9.04899 66 60 50
1.19506 -0.0171122 9.60979 64 31 3
0.880558 -2.91937 8.93072 50 52 24
1.84406 5.53891 9.38271 126 114 97
3.18464 0.354949 10.3917 178 156 132
1.00176 -3.09385 9.21934 131 135 104
0.754182 -3.7854 10.187 128 112 83
0.44484 0.360343 7.27576 44 50 18
1.27286 -1.55058 9.12581 72 40 10
-1.36239 0.57674 8.38948 72 76 34
-1.22101 0.956472 8.46635 192 170 144
0.010164 1.0542 9.14238 58 64 35
-0.224834 1.0628 7.03875 0 0 2
-2.09708 1.66408 8.00389 46 58 3
-1.57821 2.01369 8.87367 54 61 22
-1.75798 2.28124 9.01658 56 69 14
-0.679247 2.01514 7.36108 52 60 28
0.785914 -1.40944 9.89659 80 48 12
0.450477 -1.86539 9.62546 94 62 32
0.554576 -1.6775 9.82445 131 94 60
0.396095 2.11055 8.05286 74 70 70
1.21528 -2.51767 9.14252 80 85 52
0.592201 -1.72762 9.63011 205 174 134
-0.140446 1.99072 8.2428 94 92 89
1.73055 5.27338 8.99668 112 102 83
0.692055 -1.34784 9.50506 82 52 16
1.23177 -1.33356 9.48918 140 102 64
1.08723 0.9497 8.8841 42 44 32
1.02148 -2.98286 9.14399 112 112 80
0.745393 1.75639 7.88515 57 56 53
0.90299 2.14546 7.96749 56 56 52
0.63539 -3.2097 9.28912 52 45 14
0.657411 -1.82284 10.4879 181 152 118
1.75456 0.308561 8.47734 140 114 88
1.10452 0.763926 8.55677 60 64 46
1.56836 -2.21428 9.53098 95 82 50
0.575089 -2.06245 9.64532 117 84 54
0.972437 -1.69772 9.24383 164 121 60
0.626895 -1.5906 9.61828 115 70 32
0.530106 -0.69958 9.58847 123 89 48
1.11636 -1.99935 9.46285 79 48 28
0.817628 -2.74648 8.72778 112 115 86
0.0553381 -0.018326 8.04184 32 35 16
0.772223 -1.89261 9.3216 174 126 72
1.61913 0.360368 7.96533 175 163 124
0.540908 -1.87134 9.75374 206 175 146
0.894593 2.42973 8.05001 69 66 63
0.282469 2.44093 8.18688 75 70 70
-0.360607 5.24721 8.62285 177 170 149
0.606374 -1.80816 9.71599 184 153 116
1.44897 5.13328 8.79277 156 146 128
0.871402 0.256868 8.38624 108 110 74
1.43143 -3.58531 8.88535 65 44 16
0.788622 -3.01225 9.58622 120 104 77
2.56957 0.345372 8.49149 177 161 130
0.10947 2.7079 8.34127 95 93 91
0.223146 1.81403 8.0268 55 54 52
-4.44832 5.52613 8.50572 81 76 70
-0.538357 0.166502 7.28603 34 40 7
0.368115 -0.252123 8.48484 66 54 14
0.417151 -0.193366 8.48914 106 95 58
0.117947 2.66842 8.33196 76 75 73
-0.0828093 2.62306 8.44629 78 77 75
3.42909 0.278329 10.8273 126 114 90
1.03178 -0.939191 9.53118 186 150 120
1.0929 0.498975 7.37356 138 138 96
1.71083 5.24291 8.77858 148 137 118
1.12623 -2.66495 9.5489 83 88 56
1.35852 -2.54435 9.17736 187 178 150
1.37759 -2.15788 9.26895 52 48 16
-0.72509 3.61102 10.1323 148 140 126
-0.824501 3.60068 10.0507 126 120 103
-1.65373 5.5651 7.72787 143 134 112
1.59046 -2.65976 8.87182 88 73 42
1.52443 -2.70276 9.26377 172 162 135
0.893083 -2.55737 9.18547 28 35 2
0.982111 -2.6219 9.40886 94 100 62
1.80894 -2.34912 9.3367 109 90 61
0.789435 -2.20522 9.04489 114 121 51
1.22232 -1.97316 9.31033 102 75 53
1.0996 -1.94857 9.23932 86 56 40
0.756006 -1.9516 9.37277 138 96 46
0.603248 -1.67634 9.6186 156 118 80
0.151758 -0.165283 7.82522 128 120 85
-0.506717 0.0410235 7.52635 68 68 24
3.52848 0.259282 11.3698 158 144 116
2.17214 0.377347 7.31189 190 166 138
-0.658016 3.75478 9.86402 54 53 49
0.891467 2.86509 8.35824 56 52 48
-1.57587 3.00507 9.32851 40 27 8
3.33798 3.04788 9.14747 120 113 92
1.08709 0.988835 8.88274 46 48 29
-0.11824 2.75571 8.54712 26 23 22
-0.409321 2.80999 8.77889 68 67 63
-0.158469 2.58391 8.4257 69 66 64
0.960059 1.81385 7.76787 63 68 36
0.768723 3.00539 8.32227 58 56 52
1.34584 -3.61452 9.28392 204 188 162
-1.60773 2.98575 9.30417 28 20 4
-0.575454 0.23055 7.25524 205 197 166
1.37565 -1.61243 9.46808 172 144 118
0.234521 -0.278342 8.25172 166 138 100
0.933215 -1.432 9.42397 98 70 45
3.30977 3.00502 9.02292 119 112 87
-0.376725 -0.143627 7.64314 74 78 32
-0.414819 0.924835 1.4034 65 50 26
1.23442 0.111941 9.12564 116 92 57
1.42982 -3.60331 8.96209 46 34 10
1.23969 -2.65752 9.53525 92 95 65
3.06741 3.15763 9.3255 38 32 13
-0.332189 1.03261 1.67792 84 71 48
0.739823 2.61303 8.26193 44 44 40
-1.12438 5.59436 9.13735 153 144 126
-0.418782 5.32503 8.7513 136 126 108
-0.506944 -0.0262882 7.52305 200 183 146
-0.947585 3.53712 9.88653 148 129 106
-0.624374 0.254539 7.26813 186 166 135
1.13763 0.0697945 9.15506 178 149 120
3.11168 3.16125 9.35957 48 40 15
1.01594 -3.33785 9.17261 196 192 163
0.387328 -2.88418 9.59744 88 72 46
0.824599 -1.44834 9.48025 42 15 2
1.0611 -1.35929 8.99943 57 34 14
