ply
format ascii 1.0
element vertex 1101
property float x
property float y
property float z
property uchar red
property uchar green
property uchar blue
end_header
-1.15255 0.319726 3.7292 0 255 0
-0.746602 0.242977 3.59121 0 255 0
-1.66808 0.165744 3.94106 0 255 0
-1.65284 -0.0559866 3.8088 0 255 0
-1.29014 0.278615 3.63281 0 255 0
-0.6144 0.224171 3.44664 0 255 0
-0.476822 0.208928 3.39057 0 255 0
-0.671278 0.174947 3.33236 0 255 0
-1.1037 0.148498 3.74361 0 255 0
-0.986472 -0.382269 6.82416 110 71 55
-0.986485 -0.308863 6.81719 118 71 53
-1.79268 -0.198775 6.62816 172 126 97
-0.968064 -0.164007 6.87222 123 76 52
-0.805738 -0.159606 6.90813 27 5 0
0.370081 -0.114873 6.79809 70 38 8
0.841875 -0.0965213 6.7647 158 131 102
0.25119 0.0415534 5.96913 212 142 115
-0.763001 -0.0614028 6.89235 142 126 94
-0.8958 -0.033254 6.87115 104 60 49
0.22577 0.00232132 6.67596 124 87 69
0.4483 0.0287078 6.40503 118 19 0
-1.88074 0.00968676 6.83533 163 108 80
-0.788069 0.0406889 6.9069 41 14 4
0.617128 0.0870486 6.43673 197 129 98
0.42995 0.0987954 6.44956 123 112 110
-0.845391 0.10724 6.90757 26 4 0
0.191308 0.118863 6.79389 144 110 88
-1.89603 0.134461 6.84146 174 142 116
0.531648 0.177094 6.43875 52 26 22
0.528444 0.195034 6.43886 119 94 93
0.491166 0.202175 6.45746 46 24 26
0.484113 0.208692 6.47375 70 40 32
-1.21088 0.212489 6.60211 152 98 82
0.480602 0.219812 6.47403 130 90 76
0.456067 0.225021 6.49654 80 39 26
0.246222 0.255609 6.79851 148 118 100
-1.37129 0.261419 6.55231 96 42 28
-1.96536 0.29464 6.13568 150 103 98
0.676447 0.333552 6.61634 45 22 10
0.209336 0.342596 6.92716 122 95 75
0.370119 0.383126 6.63519 64 45 36
0.180397 0.57044 6.76957 119 41 39
0.506442 0.575385 6.54207 184 140 120
0.512117 0.580427 6.50716 177 144 133
0.294126 0.601129 6.60901 186 146 130
0.670491 0.599497 6.51218 196 151 132
-2.00303 0.54544 6.23065 116 106 112
0.219663 0.635639 6.72416 148 121 120
0.66944 0.673503 6.55499 57 28 17
0.392448 0.682257 6.58454 144 113 106
-1.05499 0.710225 6.93706 222 167 132
0.391213 0.693577 6.55592 133 86 74
0.471938 0.717259 6.577 125 50 47
-0.348659 0.683012 6.38859 150 134 120
0.354219 0.741508 6.62988 48 16 12
0.361734 0.751487 6.57684 76 53 49
0.458065 0.764441 6.57674 152 118 114
0.629743 0.769741 6.59316 132 103 93
-0.270283 0.739205 6.48627 145 128 116
-1.89071 0.714773 6.39915 122 62 48
-0.502755 0.733243 6.32578 196 174 170
-0.635801 0.751258 6.30876 73 57 50
-2.07996 0.776038 6.32645 130 62 32
-0.383661 0.874979 6.39813 141 59 52
-2.05051 0.840867 6.4105 99 19 6
-0.663891 0.909774 6.49123 228 206 200
-2.06911 0.887077 6.54313 107 50 42
-0.615491 0.935746 6.51012 118 90 92
-0.678657 0.981717 6.52835 113 82 75
0.489968 -0.333242 6.14764 154 132 127
0.465362 -0.337918 6.20516 112 90 82
0.199976 -0.304886 6.21278 158 114 91
-1.09222 -0.381622 6.84606 142 94 76
-0.227043 0.00391964 5.09374 170 140 122
0.229712 -0.253169 6.23873 136 40 36
0.368924 -0.209914 6.20788 249 238 230
0.787798 -0.309758 6.71427 168 150 144
-1.63993 -0.233124 6.70653 166 110 85
-1.82764 -0.154138 6.67423 146 103 79
-1.72116 -0.141858 6.67726 134 79 64
0.269677 -0.171966 6.74746 144 114 73
0.856572 -0.137312 6.71947 132 98 57
0.431347 -0.0840573 6.60497 141 124 110
-0.846232 -0.0922528 6.86083 144 94 76
-0.743693 -0.0879958 6.89331 90 77 35
-0.897089 -0.0348482 6.87616 104 59 48
0.418854 0.0380704 6.45495 162 114 104
0.5129 0.070027 6.44926 48 18 11
0.719309 0.0824613 6.45718 95 81 70
-1.85226 0.151294 6.8456 170 113 94
0.613633 0.215534 6.47856 84 38 19
0.581085 0.219575 6.47223 56 26 20
-1.94761 0.359143 6.24677 148 106 86
-1.87952 0.501695 6.28253 172 136 114
0.517106 0.580907 6.51671 178 147 136
0.506312 0.590073 6.5101 116 71 51
-1.9962 0.544761 6.21253 116 106 112
0.644738 0.633833 6.51623 144 110 96
-1.97124 0.573604 6.24738 92 86 94
0.337993 0.689142 6.60857 167 122 118
0.352318 0.686594 6.6148 144 86 86
-0.526488 0.660776 6.24063 57 46 30
0.354313 0.74096 6.63296 50 20 14
0.661493 0.740474 6.57854 28 16 8
-1.92498 0.666776 6.3198 56 22 28
0.405329 0.757336 6.61573 154 122 120
-0.670422 0.980591 6.51955 196 164 158
-0.618926 0.934002 6.31219 82 53 46
-1.83716 0.99808 6.46325 112 44 36
0.48827 -0.652841 6.38206 202 150 119
-1.03841 -0.372795 6.83859 103 63 49
-1.13815 -0.324452 6.895 166 111 85
0.342398 -0.201086 6.19026 230 212 204
-0.798124 -0.206543 6.90968 96 82 41
-1.10306 -0.185549 6.97935 154 134 93
-1.88647 0.0546904 6.82685 40 12 5
0.477939 0.121927 6.52129 69 64 66
0.416403 0.129113 6.50825 46 27 18
0.399882 0.19994 6.50166 187 140 118
-1.17923 0.20815 6.6171 93 40 24
0.476639 0.214367 6.4694 122 80 64
0.42244 0.229687 6.47207 66 20 7
-1.41666 0.238702 6.56034 114 54 33
-1.85184 0.235642 6.86837 101 68 48
0.185489 0.243973 6.8362 158 128 108
0.41697 0.273383 6.50004 218 190 172
-1.83245 0.260963 6.89593 92 49 26
0.168907 0.281889 6.88257 92 74 61
-1.32778 0.278962 6.56037 136 92 78
0.201288 0.282931 6.87203 22 8 0
0.236599 0.29369 6.87774 88 51 21
0.13424 0.429197 6.96227 117 80 51
0.569356 0.434322 6.58929 124 107 90
-1.83538 0.460046 6.3337 164 140 109
0.12766 0.539752 6.757 127 48 34
0.179483 0.56793 6.77039 119 41 39
0.299004 0.56779 6.61035 178 142 132
0.3488 0.568928 6.61297 186 156 148
0.220255 0.619058 6.71591 172 144 140
0.190648 0.674104 6.83034 144 133 123
0.673242 0.670416 6.55115 62 32 19
0.389318 0.691514 6.65893 182 147 141
-1.78051 0.720445 6.94146 182 130 106
-0.272793 0.696012 6.48833 146 128 116
0.446242 0.719402 6.55765 194 137 97
0.446287 0.772597 6.59261 30 15 14
-0.620257 0.733627 6.29495 92 80 78
-0.638408 0.776617 6.33429 44 23 16
-1.93409 0.819945 6.50267 102 27 10
-0.3876 0.870899 6.38134 138 41 34
-1.83424 0.989009 6.44615 116 38 31
0.20081 -0.31337 6.19748 140 101 82
0.173959 -0.305494 6.25725 154 122 110
-1.00465 -0.357762 6.82885 106 62 44
0.223657 -0.249114 6.22796 129 27 24
0.320045 -0.194801 6.16207 112 90 80
-1.81435 -0.249568 6.67628 136 92 69
-0.807495 -0.227549 6.95332 150 142 94
-0.791635 -0.190581 6.91397 84 73 32
-0.805788 -0.163148 6.93882 30 8 1
-1.72034 -0.11513 6.69533 162 101 80
-1.70912 -0.0269106 6.79798 175 117 90
-0.828294 -0.0160743 6.85193 172 122 100
-1.86477 0.0884702 6.78423 169 114 86
0.547257 0.202104 6.45223 112 87 84
-1.37258 0.226124 6.52366 176 120 103
0.579072 0.2492 6.47142 171 140 123
-1.85321 0.234537 6.86922 107 78 58
0.471615 0.250541 6.48802 180 152 136
0.230136 0.253276 6.82196 161 128 107
0.480677 0.353312 6.55893 50 32 22
0.136069 0.428968 6.97134 116 80 50
0.563233 0.432511 6.57935 122 103 86
0.491481 0.471212 6.66961 180 140 117
0.294544 0.525614 6.67051 184 140 121
-1.88136 0.502811 6.29086 170 140 116
0.200542 0.593487 6.74393 168 138 132
0.178377 0.678129 6.8553 35 16 8
0.186813 0.671481 6.80792 154 139 130
0.174469 0.69405 6.83562 158 135 122
0.365425 0.677756 6.6059 179 150 142
-1.32917 0.704981 6.95384 51 18 10
-0.596383 0.667877 6.29923 69 52 40
-0.283266 0.701856 6.51539 147 130 118
-1.80606 0.766336 6.94414 179 128 101
-0.473534 0.733717 6.28627 93 76 71
-0.654094 0.742894 6.31055 182 164 158
-0.497193 0.752917 6.30159 142 125 120
-0.649015 0.758242 6.28699 36 18 10
-0.72601 0.891148 6.47406 105 48 40
-0.526151 0.926842 6.56027 61 14 12
-0.669443 0.935865 6.51654 160 132 125
-0.640106 0.991312 6.53008 82 50 44
0.448184 -0.634532 6.37503 116 17 6
-1.01197 -0.33425 6.81211 166 109 84
-1.66248 -0.277466 6.72643 104 68 47
-1.63605 -0.266174 6.74302 148 102 76
-1.69361 -0.227716 6.64861 56 20 10
-1.71275 -0.213202 6.66031 122 74 53
-1.63229 -0.18873 6.84672 136 76 56
-1.10697 -0.183442 6.96382 152 140 94
-1.05015 -0.154885 6.95462 169 112 85
-0.750005 -0.118578 6.90553 88 72 30
0.267966 -0.0753361 6.81502 102 36 18
-1.7072 -0.00205128 6.78634 104 46 28
0.430253 0.0479826 6.47635 50 30 22
-1.80692 0.129273 6.84886 103 56 38
-1.8964 0.193048 6.85371 122 91 68
-1.83308 0.197349 6.74898 87 42 24
0.439915 0.229813 6.50231 73 26 14
-1.41537 0.232551 6.55909 89 34 18
0.399428 0.306411 6.54301 188 148 122
0.67342 0.323765 6.60682 34 14 6
-1.76459 0.326847 6.46075 120 60 44
0.657862 0.341937 6.63945 17 16 12
0.709895 0.394702 6.61251 53 35 22
0.178529 0.584743 6.75241 146 86 84
0.207167 0.597158 6.72332 105 78 76
0.490249 0.619397 6.49142 138 96 81
-0.688525 0.59037 6.3514 61 9 4
0.17259 0.672464 6.83875 38 18 10
0.378737 0.684021 6.64654 182 153 146
0.653476 0.73395 6.58621 48 36 32
0.398567 0.760569 6.58326 175 148 144
-0.484771 0.770051 6.30734 37 18 10
-0.447377 0.771824 6.30548 188 178 173
-1.81441 -0.209398 6.71419 136 92 64
-0.797227 -0.198023 6.93578 82 63 28
-1.72548 -0.0853332 6.71003 106 54 41
0.544293 -0.070168 6.50966 159 137 128
-0.742774 -0.116873 6.97944 85 68 30
-1.71449 -0.0679333 6.76249 164 98 74
-0.840971 -0.102823 6.96427 152 102 84
-1.88741 0.0102859 6.86312 162 106 78
-0.773971 0.0357027 6.90916 148 130 102
0.421965 0.105064 6.50991 146 118 102
0.452645 0.131534 6.47339 56 51 52
0.556346 0.151146 6.49619 128 84 72
0.54324 0.177591 6.45964 55 28 24
0.485799 0.219614 6.46605 66 40 32
0.179617 0.270212 6.88638 172 144 128
-1.69344 0.274542 6.7667 64 22 8
0.447481 0.310878 6.52424 145 120 102
0.614327 0.405723 6.76563 82 56 40
0.137605 0.533083 6.8453 168 140 124
0.468608 0.549951 6.5048 93 50 28
0.295765 0.568442 6.63874 178 149 140
0.317391 0.615145 6.62112 132 90 74
0.513474 0.63113 6.56644 133 96 81
0.761141 0.636525 6.57483 40 20 14
0.786287 0.663704 6.58516 174 147 130
-0.507832 0.664203 6.26511 98 84 68
-1.45238 0.753088 6.91045 141 93 72
-1.51177 0.757279 6.88295 42 11 3
-0.511332 0.693934 6.28799 83 51 39
0.43643 0.768694 6.58601 28 19 18
-1.93936 0.706681 6.35325 64 1 2
-1.93851 0.820597 6.51048 105 27 10
-0.393926 0.870362 6.37875 152 32 30
-0.646351 0.984604 6.5003 94 60 54
0.114616 -0.321736 6.3937 92 85 74
0.123155 -0.30626 6.43153 84 70 62
-1.10912 -0.252078 6.83151 110 36 16
-1.8169 -0.183515 6.6287 44 18 10
-0.966503 -0.199017 6.87253 32 8 3
-0.989304 -0.181509 7.02028 145 92 68
-1.72162 -0.072526 6.72751 116 63 48
-1.70547 -0.0270307 6.79795 184 124 96
-1.89138 0.052187 6.85011 50 18 7
0.577895 0.196265 6.46042 62 24 18
0.134495 0.316793 6.99217 130 110 82
0.53728 0.58145 6.54002 175 150 144
-1.11922 0.652646 7.01437 184 132 108
0.220107 0.645323 6.75829 98 76 74
-1.34009 0.701682 6.92184 44 15 9
0.434263 0.763775 6.58388 30 17 18
-2.02688 0.84097 6.47989 123 47 18
-1.09735 -0.376971 6.88459 176 114 88
0.478992 -0.0405997 6.66535 110 46 36
-1.77971 0.761296 6.91264 189 138 108
-0.396879 0.8655 6.38524 160 30 29
-1.78117 -0.228473 6.67174 136 92 69
-1.80814 -0.151705 6.67708 134 90 69
0.138084 0.411094 6.94817 108 74 50
0.415695 0.759408 6.58801 140 104 100
-1.06531 -0.389734 6.83651 92 60 49
-1.80337 -0.112234 6.66939 116 76 58
-1.56311 -0.126301 6.7934 161 144 101
-1.00227 -0.357885 6.82594 132 84 68
-1.72502 -0.080458 6.70798 114 60 44
-0.989137 -0.164798 6.90476 145 92 70
-1.72701 -0.124908 6.71497 114 62 47
-0.731904 0.893117 6.52166 108 74 58
-1.71251 0.00282588 6.78324 102 46 28
0.145831 0.416533 6.92727 154 128 112
-1.77559 0.759187 6.88416 206 154 123
0.480417 0.198719 6.46929 36 10 6
0.437188 0.77432 6.57632 76 52 50
0.563614 -0.686156 6.37936 158 142 100
0.47471 0.198653 6.45813 34 12 8
0.452009 0.221684 6.46996 78 44 33
0.377775 0.222753 6.4718 55 16 4
0.455587 0.224608 6.47991 74 42 28
0.413495 0.716174 6.57849 180 122 98
-1.80637 0.766369 6.94275 173 124 98
0.447125 0.772281 6.58801 36 18 16
-1.78114 -0.273898 6.70776 140 94 72
0.533313 0.114623 6.44392 42 13 6
-1.8418 0.206215 6.86012 41 8 1
-1.72208 -0.0711406 6.73319 117 64 46
0.512566 0.15888 6.4559 12 6 6
-1.86558 0.154595 6.87227 164 110 88
0.559302 0.635754 6.66568 132 94 78
-1.60544 0.00657266 6.80057 159 112 92
-1.88205 0.133322 6.84473 46 13 4
0.156912 0.572905 6.66974 127 98 94
-1.03886 -0.403193 6.82624 118 84 68
-1.10442 -0.2572 6.82606 93 21 4
-1.57172 -0.130744 6.82116 160 140 100
0.416555 -0.0283544 6.50064 218 192 182
0.440757 0.0557362 6.44907 104 40 24
-1.40583 0.158577 6.59163 226 173 131
0.39441 0.162984 6.83459 78 68 45
-1.19023 0.187758 6.60532 171 120 104
0.450654 0.198937 6.46397 172 143 130
0.451943 0.224265 6.46559 74 35 23
0.445618 0.231934 6.47684 76 38 22
0.484757 0.230407 6.47988 86 46 28
0.348733 0.566123 6.61149 180 150 140
0.218713 0.594833 6.72134 106 78 76
0.628974 0.6168 6.52534 134 102 86
0.656929 0.623326 6.53425 192 160 142
0.730547 0.653598 6.57747 100 60 44
-1.96548 0.57975 6.26319 110 106 114
0.75797 0.658358 6.55773 160 141 129
0.460198 0.683297 6.53751 130 122 110
0.387527 0.819517 6.90579 192 165 154
-1.93243 0.725153 6.35428 142 76 36
-2.10106 0.78187 6.24105 139 54 34
0.453038 -0.40861 6.19668 28 14 3
-1.00062 -0.424056 6.83228 87 62 42
-0.962859 -0.341556 6.80868 124 82 66
-1.778 -0.22407 6.63258 142 96 76
-1.79377 -0.199984 6.63375 173 126 96
-1.80673 -0.146511 6.61614 158 114 92
0.392767 -0.0328373 6.82226 64 42 10
0.444672 0.161616 6.54272 82 60 49
-1.17099 0.166505 6.7096 87 39 22
0.510452 0.204728 6.44854 128 100 100
0.191154 0.215585 6.76162 116 90 57
0.436267 0.231531 6.4584 76 38 22
-1.36412 0.227266 6.55329 158 110 96
0.200202 0.261981 6.94032 159 132 112
0.64553 0.326568 6.59942 122 96 74
0.458734 0.350956 6.52979 173 148 136
0.636669 0.353684 6.64274 29 10 1
0.83429 0.598468 6.62968 136 94 70
0.503933 0.586513 6.5343 108 62 40
0.290613 0.598025 6.62858 120 82 66
-0.479586 0.781879 6.33679 52 32 24
-0.534536 0.918572 6.50719 88 22 20
-1.71908 -0.203313 6.65406 100 50 38
-1.81813 -0.155447 6.69819 145 102 79
-1.68096 -0.14725 6.6696 51 6 0
-1.71723 -0.147166 6.65963 155 97 76
-0.789846 -0.152225 6.89116 148 141 96
-1.03738 -0.150663 6.92743 206 152 119
-1.06379 -0.137885 6.88463 179 124 92
0.78924 -0.126651 6.65989 88 61 46
-1.57167 -0.0681666 6.80977 59 18 1
-1.88294 0.0417966 6.80564 59 21 10
-1.08014 0.0570313 6.78685 119 70 44
0.455967 0.163386 7.0229 30 12 2
0.467987 0.202127 6.50014 174 147 136
-1.84127 0.204971 6.86614 39 11 4
0.382491 0.225603 6.44823 58 14 2
0.173178 0.238601 6.89539 99 81 54
0.20176 0.248005 6.77506 162 131 103
0.181153 0.697253 6.86202 160 132 120
-1.9824 0.683781 6.2879 32 17 28
-0.67419 0.929542 6.49603 111 84 76
-2.12523 0.924874 6.4122 186 101 64
-0.98583 -0.305696 6.81862 144 88 70
-0.955594 -0.27311 6.83997 125 79 64
-0.939083 -0.149918 6.89935 115 66 50
-0.754647 -0.130251 6.88741 98 82 36
-0.78557 -0.0978845 6.84981 136 90 66
-1.55552 -0.0398306 6.85224 126 88 59
0.435401 0.157593 6.50311 16 8 9
-1.17175 0.163291 6.6307 80 33 16
0.476357 0.169451 6.56356 122 94 85
0.586112 0.174017 6.46839 129 78 57
-1.36514 0.25656 6.54614 72 22 6
-1.79602 0.265998 6.90018 115 87 68
0.244435 0.271821 6.8411 34 12 2
0.445193 0.31439 6.52133 142 116 99
0.514895 0.392798 6.59494 23 14 10
0.498498 0.575924 6.5365 167 123 98
0.694384 0.639386 6.52632 183 142 120
-0.266642 0.688425 6.44698 90 68 55
0.453728 0.712878 6.5454 126 38 30
-0.669787 0.715329 6.32667 199 172 164
-0.663763 0.909881 6.49105 199 168 165
-2.11702 0.954347 6.43027 171 88 36
-1.82509 -0.159422 6.70868 160 114 92
-1.72153 -0.153545 6.68144 165 104 82
0.623027 -0.148236 6.56424 82 44 30
-1.0889 -0.176163 6.97336 64 22 4
-1.58103 -0.0732293 6.84758 52 15 3
0.236006 -0.0506477 6.71451 182 142 120
-1.70814 -0.0268593 6.80901 198 142 111
0.42661 0.104322 6.50664 125 96 80
-1.90856 0.175571 6.8629 116 88 62
0.198583 0.234145 6.88075 171 138 116
0.559226 0.284014 6.62094 101 64 40
0.143259 0.549387 6.81225 112 26 20
0.74919 0.615286 6.61646 160 94 70
0.749014 0.689379 6.6698 61 32 22
-1.05349 0.710927 6.93237 211 156 116
0.460559 0.718991 6.56574 152 70 55
-2.03014 0.838183 6.47037 85 10 6
0.911889 -0.412158 7.60659 100 61 35
-1.66547 -0.171747 6.68584 91 40 24
-1.59554 -0.102815 6.84346 50 16 4
-0.745587 -0.0901852 6.91785 80 56 21
0.201383 0.108427 6.73167 150 116 92
0.44894 0.202154 6.48391 178 154 142
0.552404 0.218099 6.45439 56 28 22
-1.436 0.216291 6.56439 178 118 96
0.455809 0.253812 6.48245 184 158 143
-1.58413 0.359978 6.8536 174 124 100
-2.15074 0.416677 6.15711 168 138 122
0.39235 0.545669 6.50631 96 49 26
0.527391 0.57678 6.52017 164 130 119
0.787888 0.605777 6.56282 134 88 64
0.451437 0.598195 6.55061 180 156 150
0.435996 0.725894 6.57314 187 147 90
-1.84933 -0.20461 6.66631 124 80 56
-0.900209 -0.123064 6.90161 53 15 9
-2.05361 0.622695 6.28461 27 21 30
-1.44441 0.742965 6.86126 126 76 55
-2.11255 0.781673 6.2708 126 16 16
-0.727364 0.936865 6.53105 96 60 50
-0.966891 -0.234455 6.81777 137 85 66
-0.881521 -0.175262 6.91831 118 68 50
-1.70996 -0.0738364 6.70204 171 108 86
1.15591 -0.023182 9.073 161 150 126
-1.8629 0.143945 6.87722 144 89 66
0.466721 0.542694 6.50094 96 53 33
-0.463617 0.705344 6.30368 150 96 93
-1.99712 0.82891 6.47771 156 98 30
0.996125 -0.644836 6.63552 102 78 42
-0.963029 -0.338087 6.80226 118 79 64
0.665648 -0.181864 6.2111 155 140 130
-1.62227 -0.212846 6.68858 61 18 6
0.191491 0.0063778 6.66699 40 20 10
0.187724 0.0204949 6.66574 164 134 117
0.422383 0.0389671 6.45901 161 102 88
-2.02857 0.174558 6.11545 144 126 113
-2.08426 0.18674 6.09702 140 125 114
0.466785 0.15789 7.01902 44 23 4
-1.17424 0.21323 6.61178 96 43 27
-1.8427 0.209463 6.83128 158 132 114
0.433849 0.22603 6.54107 122 76 58
0.495657 0.228526 6.47087 29 6 4
0.350403 0.78899 6.81478 228 206 200
0.185268 -0.354255 6.23783 102 10 3
-1.66006 -0.276608 6.71136 104 68 47
-1.68244 -0.242623 6.65241 80 46 31
-1.71622 -0.201019 6.65036 123 70 54
0.434549 -0.109992 6.61164 89 80 62
0.833209 -0.0946606 6.74909 164 144 107
-0.776241 0.0340852 6.9079 140 114 94
-2.03209 0.173683 6.12013 134 116 107
-1.40525 0.162188 6.56243 212 155 115
-1.42806 0.201906 6.57597 90 35 14
0.620188 0.219708 6.46872 174 136 116
0.411787 0.219554 6.56953 74 26 6
-1.41748 0.238252 6.56568 101 43 22
-1.95649 0.288605 6.1023 140 80 82
-2.12974 0.331874 6.09893 128 78 66
-0.689723 0.591111 6.33657 58 3 0
-0.467062 0.766417 6.35195 66 52 46
-2.03644 0.774897 6.36701 158 124 104
-2.14608 0.872908 6.39101 141 70 44
0.108145 -0.589498 6.65103 118 98 53
0.364576 -0.219277 6.16414 160 134 127
-1.60953 -0.273449 6.77995 52 32 10
-1.7137 -0.211289 6.65481 97 54 38
-0.925973 -0.258635 6.8434 108 66 54
-1.62293 -0.178109 6.68299 106 50 28
-1.68698 -0.140584 6.65524 64 14 4
-1.71274 -0.122557 6.68114 151 94 76
-0.845759 -0.0911383 6.86332 143 94 76
0.434062 0.00598508 6.41481 190 100 78
1.57638 -0.155265 9.86492 158 124 102
-0.801512 0.10295 6.90972 96 68 45
-1.38908 0.145363 6.49487 208 153 114
-1.81765 0.203966 6.8675 138 90 70
-1.36959 0.220479 6.52898 137 86 71
-2.15213 0.256627 6.09667 146 78 60
0.197337 0.256862 6.86756 24 6 1
-1.95867 0.333414 6.09586 142 115 118
0.330607 0.779156 6.74073 217 194 186
0.367505 0.814828 6.81347 220 190 180
-1.99513 0.685666 6.25874 24 12 26
-2.01789 0.824471 6.43737 88 12 2
-2.14404 0.877665 6.39194 138 40 20
-1.05751 -0.369173 6.81569 78 36 20
-1.03818 -0.369438 6.82256 110 66 52
-0.998953 -0.328943 6.79039 136 82 60
-1.10427 -0.25677 6.81942 98 25 6
-1.66922 -0.0173931 6.81143 114 60 34
0.289588 0.0752234 6.75792 67 31 14
-1.85909 0.151994 6.85248 174 118 94
0.470107 0.201974 6.51074 174 148 137
-1.21425 0.221741 6.58797 180 122 105
-2.1464 0.25559 6.08609 146 74 56
-1.95958 0.321271 6.10706 65 24 26
0.64453 0.342107 6.60238 22 11 6
-1.99469 0.545244 6.2086 122 112 120
0.519367 0.622381 6.5346 133 96 79
-2.0143 0.589843 6.23964 107 101 114
-0.29128 0.693201 6.46227 152 134 121
-2.07291 0.748359 6.29198 60 2 0
0.453426 -0.412825 6.19644 26 16 7
-0.939538 -0.310303 6.82655 113 70 58
-1.8528 -0.203037 6.69461 118 76 55
-1.54359 -0.0325963 6.90584 94 56 25
-0.829987 -0.0177264 6.88088 187 135 114
-1.86714 0.0129146 6.76974 164 110 86
-2.09475 0.186491 6.1097 154 138 119
-1.4105 0.157221 6.57872 208 152 112
-1.37842 0.224853 6.56987 172 118 102
-1.96551 0.308843 6.12921 152 135 138
-2.11362 0.329407 6.08125 169 124 111
-1.98318 0.332874 6.08412 147 90 91
-0.52042 0.503293 6.79974 160 142 121
-2.04419 0.593839 6.21786 40 36 46
-1.92655 0.851198 6.51173 155 118 104
-0.785955 -0.157084 6.90846 145 138 94
0.425413 0.157157 6.51901 94 70 59
-2.09739 0.186491 6.11139 154 136 118
0.588642 0.190432 6.47049 64 26 14
-1.34612 0.254611 6.55795 170 118 103
-1.9999 0.296395 6.18113 163 137 136
0.172309 0.336926 6.97945 142 90 60
-1.97759 0.327048 6.08337 158 130 132
-1.9886 0.539698 6.23163 18 16 32
-1.47611 0.762075 6.85497 74 28 17
-1.94262 0.796233 6.29917 122 46 16
-1.67549 -0.281287 6.75669 94 60 40
-0.966421 -0.245342 6.88164 134 81 62
-1.53385 -0.0243701 6.82034 97 60 29
0.478227 0.2804 6.49931 124 98 80
0.151589 0.298162 6.80858 20 12 6
0.267277 0.703531 6.69102 176 145 138
-2.00927 0.767457 6.32209 156 126 106
-0.672897 0.930754 6.49047 126 98 90
-1.08786 -0.179066 6.95258 90 50 28
-1.92757 0.351689 6.19363 142 112 92
-1.91894 0.382358 6.25307 83 17 7
0.210428 0.621598 6.75956 98 68 69
-1.89187 0.696619 6.36789 122 19 20
-0.484597 0.759616 6.2925 47 29 24
-2.09272 0.766692 6.21636 124 20 18
-1.93263 0.851789 6.53742 157 130 116
-1.97684 0.889768 6.47377 138 76 22
0.270628 -0.143014 5.84017 189 168 162
0.627919 0.202356 6.45687 77 32 12
0.838786 0.470193 6.66747 46 19 1
0.486262 0.771164 6.64562 86 51 50
-0.47829 0.920139 7.0861 51 30 22
-1.06804 -0.374709 6.84539 68 28 14
-0.856744 -0.020662 6.86656 144 96 71
0.495663 0.0245382 6.41506 113 52 32
0.784718 0.117792 6.62343 136 96 71
0.59475 0.17452 6.49056 124 73 56
0.401589 0.201339 6.50568 188 140 118
0.631135 0.203524 6.46229 76 31 9
0.438124 0.22695 6.55626 131 84 70
0.458741 0.418772 6.62599 100 65 44
0.30678 0.571669 6.62935 174 138 126
0.89805 0.651795 6.88146 139 111 95
0.993732 -0.652937 7.65337 134 100 82
-1.04194 -0.406551 6.82916 110 74 58
-0.986104 -0.38456 6.8169 108 70 51
-1.05488 -0.370087 6.82071 57 20 5
-1.59442 -0.10825 6.84811 50 12 0
-0.860466 0.0483096 6.86917 157 106 84
0.479955 0.466922 6.64917 164 127 104
0.377385 0.687797 6.58772 155 95 80
0.418644 -0.0523138 6.87724 134 118 72
0.453289 0.13431 6.46456 102 96 100
0.582554 0.147981 6.47076 139 81 59
-1.40491 0.162052 6.55895 210 154 116
0.139991 0.385757 6.94763 105 69 38
0.453136 0.429883 6.62342 158 125 106
-2.15928 0.419613 6.18908 177 126 104
-1.06859 -0.374762 6.83998 75 35 20
0.458602 0.310441 6.54553 127 100 84
0.353399 0.738761 6.61069 121 87 82
-0.936099 -0.306826 6.79581 124 81 64
-0.88891 -0.165373 6.9002 130 81 65
0.551595 0.0659572 7.67547 100 86 70
-0.846279 0.725665 6.58155 121 96 88
-0.726067 0.944192 6.53982 89 52 46
-0.683217 0.99701 6.60835 153 122 114
-1.02572 -0.356522 6.88082 156 100 75
-1.14578 -0.308336 6.87515 100 62 37
0.245084 0.224518 6.92054 128 101 71
0.181485 0.269673 6.9046 161 136 116
0.207971 0.340479 6.88741 103 72 40
-0.9834 -0.292171 6.81691 148 90 68
-0.819237 -0.158668 6.90054 26 6 2
-1.54576 0.226677 6.61378 152 98 76
0.866771 0.82931 7.47708 126 30 27
-1.65975 -0.275193 6.70858 98 64 44
0.544622 -0.100191 6.52317 106 93 81
0.395139 0.201641 6.49748 186 140 115
0.425153 0.506232 6.52502 111 70 46
0.288338 0.600824 6.62552 118 80 65
0.643417 0.634982 6.51612 140 108 94
0.894988 0.682277 6.81859 178 142 126
0.71756 0.64638 6.541 160 105 90
0.413171 0.713839 6.58037 188 118 90
-0.86008 0.0502812 6.8564 181 130 106
0.611344 0.161633 6.46283 175 134 114
0.595696 0.186916 6.46488 84 30 18
0.449746 0.197835 6.4691 174 145 134
0.538531 0.215793 6.43856 54 28 25
0.518448 0.395321 6.59579 24 14 6
0.496189 0.576111 6.53207 169 126 104
0.449777 0.580066 6.50851 128 83 62
0.655682 0.620194 6.53713 187 158 142
-2.00308 0.578708 6.23542 23 16 26
-0.632365 0.741602 6.38522 71 56 50
-0.783583 -0.100348 6.86994 138 93 66
-1.10183 0.174242 6.71574 76 23 4
0.660962 0.158789 7.18883 88 67 54
0.500686 0.584228 6.52729 109 64 43
0.512293 0.624217 6.53079 132 90 74
0.731236 0.647038 6.58247 176 128 107
-1.98099 0.573985 6.26908 54 49 58
-2.01232 0.591881 6.23637 108 102 112
-0.846715 0.692487 6.40304 155 131 124
-0.829147 0.733794 6.50901 153 124 113
-0.536942 0.745184 6.33989 155 88 80
-0.721345 0.899614 6.51036 70 20 10
-0.664156 0.912032 6.49542 206 185 180
0.418803 -0.105672 6.57722 84 77 58
0.27041 0.0731709 6.69223 93 48 32
-1.43757 0.215491 6.58734 177 118 99
0.193983 0.250485 6.85926 27 9 0
0.872547 0.552473 6.63348 130 99 83
0.346747 0.571644 6.5971 188 162 156
0.280489 0.594057 6.59911 118 81 64
0.380031 0.6649 6.81039 230 212 205
-2.02766 0.622278 6.23544 30 22 30
-0.984432 -0.386971 6.8225 108 68 46
-1.13735 -0.331528 6.91639 168 117 92
0.339822 -0.151128 6.93277 168 139 100
1.54845 -0.269019 9.70377 149 80 67
0.40033 0.250827 6.53382 175 136 114
0.443465 0.469144 6.64328 106 60 36
0.859065 0.530586 6.6492 163 142 132
0.212982 0.594939 6.81313 160 131 122
0.467258 0.690269 6.56476 108 110 96
-1.02733 -0.366421 6.84033 151 100 84
-1.01898 -0.342138 6.8438 170 110 84
-1.96691 0.357281 6.29351 160 132 110
0.431001 0.540632 6.51983 150 102 78
-1.99365 0.601518 6.29878 18 14 28
-0.536891 0.767577 6.33183 156 106 97
-1.63493 -0.262301 6.6845 148 97 75
-0.786944 -0.0147432 6.87682 155 102 75
-1.90165 0.193382 6.86705 139 108 84
0.127345 0.407781 6.96912 140 120 92
0.561983 0.693846 6.55889 148 86 74
-0.464679 0.780157 6.37028 36 16 6
-2.06697 0.750167 6.27786 74 8 8
-1.8459 -0.210125 6.76956 96 63 46
0.557497 -0.0564841 7.14811 59 42 6
0.676151 0.660913 6.54959 188 158 143
-1.68411 -0.143309 6.66492 60 10 4
-0.870851 -0.155259 6.8932 112 64 47
-2.14028 0.289169 6.07986 154 84 72
-1.51956 0.763637 6.92351 45 12 4
-0.683583 0.950517 6.40931 166 134 128
-2.02177 0.155819 6.08935 115 106 101
-1.96682 0.324529 6.04143 160 125 124
-1.12383 0.721291 7.03055 223 172 134
-0.772551 0.0508001 6.89943 102 84 59
-0.986546 -0.383036 6.82769 110 72 57
-1.70195 -0.004025 6.78797 106 50 27
-1.87015 0.0117595 6.78533 155 104 80
-1.8905 0.0397936 6.83002 67 28 10
-1.08009 0.0585789 6.7637 126 77 50
-1.91127 -0.0390963 6.85852 154 142 114
-0.771124 -0.00855327 6.86479 144 100 76
-1.89633 0.00965332 6.81833 168 118 93
-0.925999 -0.258409 6.83995 100 64 47
-1.90366 0.0477419 6.80785 158 142 120
-1.88803 0.137651 6.80878 114 86 62
-1.89151 0.0928676 6.82465 197 146 110
-0.659875 1.00571 6.62072 111 79 70
-1.71661 -0.124833 6.69281 146 86 70
-1.71449 -0.118785 6.67242 156 94 76
0.42409 -0.0607392 6.64614 120 106 90
-1.88863 0.0543665 6.83704 48 16 6
-1.79596 0.76775 6.9353 191 142 112
-1.89369 0.0946128 6.81268 197 146 118
0.496978 -0.674145 6.39201 166 114 90
-1.90874 0.138925 6.84037 158 142 123
0.605009 0.105999 6.4515 189 117 90
0.699105 0.656642 6.47061 111 89 75
0.453021 0.766409 6.58265 52 26 24
-0.7454 -0.0874626 6.87967 90 76 34
0.400244 0.241161 6.53018 175 131 108
0.659751 0.340602 6.632 26 12 2
0.20981 0.634324 6.687 122 96 92
0.395796 0.693375 6.59932 120 42 40
-1.64094 -0.237536 6.71903 164 112 91
-1.41534 0.232198 6.56254 88 30 14
-0.614722 0.660704 6.23814 100 76 60
0.34139 0.5736 6.58013 186 161 156
0.510138 0.618867 6.55555 152 110 94
0.563365 -0.687537 6.37767 154 138 92
0.192063 -0.674992 6.682 94 79 44
0.592793 -0.585294 6.34779 164 147 131
0.903462 -0.453279 6.33317 154 126 99
0.632177 -0.272391 6.09746 170 126 106
-1.16039 -0.398907 7.01096 134 119 84
0.641234 -0.243319 6.11677 151 133 122
-1.62756 -0.267549 6.81824 114 84 64
-1.18971 -0.0475421 6.93304 98 66 31
0.382415 0.0141594 6.31038 143 46 21
0.306425 0.0189679 6.77737 46 20 8
0.188867 0.100575 6.79221 86 60 37
0.668878 0.128178 6.44506 108 64 45
-1.16572 0.178085 6.62434 97 48 33
0.46981 0.205268 6.47144 170 128 112
0.542761 0.204472 6.44574 101 75 74
-1.38185 0.219007 6.54693 134 81 63
0.445446 0.232174 6.44356 77 38 24
-1.30616 0.264171 6.53399 62 18 5
-1.33186 0.275422 6.60919 132 88 76
0.217361 0.310973 6.94252 96 72 50
0.186811 0.345149 6.9727 138 86 59
0.429338 0.35965 6.71713 79 55 42
0.700439 0.360148 6.56865 162 134 115
-1.97967 0.368737 6.3532 102 62 43
0.760147 0.396072 6.62512 39 26 13
0.142739 0.496462 7.07798 105 90 67
0.138304 0.497517 6.98124 116 86 66
0.31576 0.540659 6.63609 206 157 138
0.421251 0.565561 6.51289 210 170 150
0.467462 0.583073 6.51733 119 74 50
0.822859 0.611772 6.61477 170 131 114
0.207192 0.6341 6.67169 122 96 91
0.811428 0.636101 6.615 164 138 123
0.35494 0.685985 6.61896 138 77 78
0.350589 0.701568 6.58696 155 78 80
0.455547 0.740311 6.58496 196 142 110
0.386964 0.760837 6.62377 70 46 42
-0.687647 0.968512 6.47963 98 68 62
0.835842 -0.366988 6.20746 148 125 99
0.637401 -0.275701 6.08688 160 118 94
0.624255 -0.262416 6.11644 122 87 73
0.226275 -0.25067 6.23207 126 37 34
0.36288 -0.234177 6.12442 176 151 142
-1.77293 -0.263427 6.63817 122 82 58
0.547826 -0.0881367 6.55113 87 70 54
-1.36823 -0.00851126 7.12844 89 56 24
0.491051 0.0289846 6.40785 80 21 4
0.276471 0.0252508 6.71995 151 108 84
0.438342 0.0544366 6.43978 136 62 38
0.715386 0.0781581 6.44213 43 28 14
0.485193 0.0876179 6.44277 80 66 68
0.521294 0.0999431 6.4418 91 54 41
0.188599 0.135446 6.74449 155 115 89
0.587393 0.147409 6.35633 156 112 92
0.406964 0.15739 6.49208 162 132 116
0.434144 0.160867 6.52172 67 49 43
0.463868 0.166136 6.48231 20 11 16
0.427949 0.174753 6.48312 152 124 115
0.569418 0.17463 6.43991 128 78 61
0.48489 0.201942 6.44307 45 23 25
-1.22086 0.221785 6.61246 178 121 104
0.537727 0.284097 6.57458 100 63 38
0.678485 0.324753 6.59851 50 27 11
0.464934 0.366621 6.56368 61 34 19
0.372164 0.430525 6.69544 96 74 58
0.285723 0.526796 6.54143 208 158 138
0.424831 0.567133 6.52954 206 167 150
0.470496 0.580457 6.53039 114 70 44
0.679739 0.600799 6.53499 192 155 134
0.652519 0.60474 6.50386 141 113 96
0.732366 0.616024 6.56902 163 127 117
0.770057 0.618519 6.57544 78 57 49
0.407689 0.732234 6.57127 184 126 101
-0.676915 0.694021 6.29531 179 112 107
-0.702869 0.72323 6.31127 183 126 122
-0.448616 0.748516 6.30192 166 150 142
-0.500491 0.746694 6.27366 153 134 128
-0.44694 0.767329 6.30335 196 178 176
-0.492554 0.765257 6.27638 40 22 16
-0.726546 0.890638 6.47111 151 93 84
0.273851 -0.350028 6.16121 194 152 134
0.392805 -0.340476 6.18716 236 220 210
-1.06647 -0.306218 6.80726 98 40 18
0.368788 -0.193682 6.21668 66 41 31
0.44962 -0.0613184 6.42203 111 18 12
0.618419 -0.0757537 6.6145 160 136 124
0.876525 -0.0754568 6.82038 102 90 68
-1.55153 -0.0389834 6.83235 120 82 53
0.666447 0.0352669 6.39648 180 146 122
0.299248 0.02219 6.7404 24 7 0
-1.10617 0.0439037 6.8269 124 78 50
0.198415 0.0739559 6.79795 94 66 40
0.430024 0.10393 6.50557 148 125 118
0.214331 0.115251 6.79995 58 16 4
0.456776 0.201399 6.43839 164 122 107
0.430662 0.21022 6.50731 200 172 155
-1.74179 0.226296 6.83393 48 16 11
0.479384 0.224631 6.43674 24 4 2
0.180067 0.239512 6.80478 146 115 94
0.480742 0.269083 6.48304 134 107 92
0.163325 0.337358 6.90746 146 92 62
0.397036 0.34408 6.71933 138 96 77
0.391096 0.351719 6.59767 46 21 7
0.865492 0.471692 6.73833 54 28 5
-0.73065 0.508271 6.62364 131 50 36
0.419243 0.565067 6.50773 203 163 144
0.477538 0.579802 6.55148 112 67 42
0.789882 0.643695 6.5975 51 30 21
-0.373726 0.629882 6.35254 156 133 120
-0.507827 0.65715 6.23469 104 82 64
-1.94179 0.671961 6.36135 59 24 27
-0.258981 0.699124 6.40172 163 148 142
-0.838922 0.746995 6.5162 105 76 67
-1.93684 0.814222 6.5102 100 34 18
-2.03997 0.878212 6.4265 126 74 61
0.322105 -0.691066 6.8407 99 82 54
0.154617 -0.314063 6.26179 104 60 36
0.618758 -0.268494 6.06431 152 110 92
-1.13789 -0.337516 6.95449 175 114 89
-1.60777 -0.251751 6.76351 146 96 70
-1.8273 -0.198291 6.64489 86 49 34
-1.04548 -0.150913 6.93221 208 155 126
0.586236 -0.0590562 6.60347 150 116 102
0.384969 -0.033368 6.82273 64 34 13
-1.35874 -3.26109e-05 7.07437 88 53 22
0.518135 0.0713623 6.45797 29 3 0
0.61904 0.160969 6.47071 182 146 125
-1.86545 0.212973 6.87664 156 132 114
0.633052 0.220419 6.49575 180 146 126
0.445614 0.226596 6.46223 70 34 22
-1.3318 0.251834 6.52708 154 102 89
0.691304 0.32461 6.63865 38 14 4
0.134086 0.546848 6.76026 128 27 17
0.409941 0.563392 6.48633 193 150 132
0.469595 0.573836 6.52421 110 64 39
0.500152 0.585158 6.52065 102 54 32
0.745545 0.616686 6.59348 162 139 130
0.627402 0.603207 6.4628 158 128 113
0.820305 0.694085 6.64055 58 42 29
-0.524435 0.661429 6.25814 58 42 30
-0.256477 0.705935 6.43524 158 142 137
-0.768369 0.690824 6.33722 99 74 64
-0.61983 0.732444 6.27459 77 65 62
-1.97496 0.884385 6.45342 136 60 22
-0.617512 0.935273 6.49663 102 73 72
-1.84684 1.00653 6.48427 108 30 26
0.920355 -0.465141 6.37529 153 130 108
0.325792 -0.306983 6.08143 164 131 116
0.359925 -0.223047 6.13567 81 58 50
-1.16131 -0.315415 6.96218 48 28 9
-0.779165 -0.068786 6.87676 35 12 1
-0.760416 -0.0616103 6.87959 132 116 84
0.200664 0.0825497 6.73926 156 126 104
-1.09927 0.134015 6.67469 150 98 70
0.587756 0.189125 6.46452 62 20 7
-1.376 0.252339 6.59446 66 23 12
-1.75977 0.282794 6.89535 62 25 9
0.399094 0.303426 6.54771 189 151 123
0.635652 0.5787 6.5288 136 105 92
0.648143 0.630674 6.53505 150 115 97
0.175619 0.670945 6.85309 46 20 12
-0.267343 0.713371 6.59811 150 132 119
-0.678395 0.700044 6.31838 158 98 94
-1.88619 0.704381 6.37191 108 28 20
-0.67142 0.711535 6.33231 174 150 140
-0.261903 0.738955 6.44785 110 90 82
-1.82706 0.983023 6.42393 118 21 22
0.488666 -0.672379 6.38004 143 90 64
0.457072 -0.29462 6.133 186 170 166
0.488805 -0.0423747 6.39302 145 111 98
-0.760146 -0.0687839 7.02494 132 124 82
0.368502 -0.060377 6.78874 132 106 75
0.518438 -0.012967 6.39916 172 120 96
-1.44428 0.0196591 7.00643 82 40 16
0.192806 0.0941121 6.81111 106 81 58
0.261474 0.0888445 6.95206 151 117 98
0.257501 0.11312 6.74769 60 24 13
-0.836319 0.133586 6.97769 86 51 27
0.368011 0.368598 6.62065 149 127 118
0.667672 0.440342 6.62991 164 142 130
0.336721 0.573813 6.57522 194 171 166
0.329528 0.692461 6.59258 122 68 66
0.640089 0.728873 6.5604 42 28 22
-1.46356 0.75342 6.81064 72 26 17
0.377857 0.749768 6.6026 29 14 9
-0.704867 0.725104 6.30061 165 126 119
-0.70545 0.748407 6.30051 156 100 93
-0.608101 0.913017 6.48433 59 26 26
0.452046 -0.690369 6.40437 150 145 96
0.475965 -0.652529 6.36205 152 100 73
0.428143 -0.615321 6.31931 114 12 7
-1.03454 -0.148267 6.85942 196 141 114
-1.34335 -0.0173671 7.18614 159 146 124
0.429586 0.11566 7.09872 149 136 112
0.64597 0.164456 6.50733 181 146 125
0.15403 0.339259 6.92128 141 86 58
-1.06055 0.661271 7.03518 184 130 106
-0.64975 0.768427 6.3489 38 20 14
-1.96961 0.887985 6.54185 132 72 29
0.438569 -0.31022 6.15694 64 49 46
-0.842288 -0.0212768 6.85066 154 106 84
-1.84158 0.051946 6.72436 34 8 4
-0.853451 0.0484512 6.82374 131 79 60
0.229949 0.227438 6.83003 168 134 114
-0.392889 0.497331 6.48585 132 34 26
0.547268 0.580189 6.55008 178 156 152
0.551124 0.676308 6.52382 184 147 142
0.558851 -0.620679 6.33198 168 138 112
0.397596 -0.331945 6.14657 160 138 133
0.371994 -0.289441 6.09479 189 166 157
0.719165 -0.178946 6.20642 176 150 137
0.275003 0.0297882 6.70465 148 104 86
0.648788 0.0625117 6.4181 185 134 110
0.638487 0.145494 6.48266 149 104 84
0.164981 0.248639 6.84481 46 23 8
-1.8299 0.261898 6.8881 88 51 30
-1.93429 0.28907 6.05996 134 70 68
0.397719 0.298485 6.52169 216 184 159
0.30509 0.619187 6.6603 152 116 106
0.793319 0.625458 6.61712 80 58 50
-1.82122 0.782505 7.02356 200 150 120
-0.66895 0.712994 6.3183 212 188 176
-0.641368 0.778971 6.32878 74 50 46
-1.94287 0.815198 6.52976 96 40 24
0.120382 -0.51664 6.56359 138 116 86
0.148099 -0.331163 6.26376 168 126 104
0.161828 -0.243287 6.34678 104 70 49
-1.6244 -0.269048 6.73812 128 92 72
-1.80108 -0.110815 6.65721 121 82 62
-1.91642 0.100651 6.807 112 84 58
-1.09825 0.126728 6.65418 136 88 57
-1.34466 0.284731 6.53973 98 48 34
0.185402 0.322938 6.95654 80 46 23
0.39305 0.351561 6.60637 41 18 6
-1.78508 0.44032 6.39368 124 24 8
0.335315 0.628705 6.70081 148 114 99
0.73222 0.776459 6.6562 182 150 126
0.541697 -0.618889 6.31737 47 28 14
0.478031 -0.619526 6.33316 114 26 13
0.105965 -0.465989 6.55416 123 100 75
0.209473 -0.231646 6.25631 142 72 66
0.628817 -0.213572 6.15129 96 100 84
-1.82441 -0.116329 6.722 118 79 58
-1.88407 0.0404843 6.81895 64 26 10
-1.91748 0.0822396 6.81185 100 72 44
-0.819855 0.11305 6.98034 158 136 109
-1.1967 0.185386 6.64732 161 108 93
-1.92962 0.356036 6.20709 157 126 106
-1.93343 0.362143 6.25248 106 61 46
-1.96913 0.373768 6.36155 160 138 118
-1.11183 0.721697 7.03067 208 159 127
0.670403 0.721299 6.56769 214 189 172
-0.650133 0.728356 6.31439 66 48 44
-0.641937 0.781322 6.36442 43 20 12
0.494828 -0.676304 6.38859 194 148 124
0.538745 -0.654832 6.39008 160 111 85
0.512608 -0.621715 6.33795 32 14 4
0.362337 -0.323711 6.09541 220 200 193
0.164116 -0.291447 6.37918 120 92 80
-1.62531 -0.178789 6.68742 122 68 50
-1.06421 -0.131685 6.87183 132 76 48
0.783387 -0.128415 6.63162 117 87 70
0.431331 -0.0465678 6.58337 152 128 114
-1.91858 0.0790733 6.81629 104 74 48
0.213205 0.0778706 6.78577 156 128 105
0.216302 0.14751 6.82269 102 63 38
-1.16365 0.169576 6.65078 146 100 82
0.585793 0.225745 6.47917 56 23 14
-1.72361 0.327871 6.36626 109 42 28
0.136144 0.424156 6.9817 116 86 56
0.140009 0.54002 6.9004 100 79 58
0.496073 0.603083 6.52274 170 132 117
-0.829657 0.741542 6.56676 152 127 115
-2.02037 0.767438 6.34167 166 134 114
-2.01523 0.828041 6.33703 98 10 2
-1.91126 1.02106 6.34738 124 86 82
0.586181 -0.278243 6.05415 156 132 126
0.707329 -0.248644 6.19417 124 111 100
-1.83711 -0.195785 6.63743 118 76 58
-0.816007 -0.167215 6.95029 29 9 0
-1.81445 -0.112572 6.68305 120 80 58
-1.09338 -0.170269 7.20269 180 124 94
0.213737 0.118842 6.53322 82 46 30
0.248826 0.31333 7.00387 138 110 81
-1.75994 0.32378 6.40419 134 80 66
0.523883 0.361236 6.60258 136 112 98
0.395145 0.370768 6.69787 158 133 120
-1.95467 0.369871 6.32902 159 139 118
-0.589831 0.489494 7.39105 117 90 54
0.455127 0.470614 6.68899 102 60 34
-0.382882 0.507195 6.64822 126 66 46
0.813218 0.693509 6.63373 44 24 10
-0.661722 0.977825 6.4884 114 86 78
0.51481 -0.608484 6.27703 60 40 27
0.329861 -0.701064 6.87359 107 92 64
0.946247 -0.620972 6.5307 98 72 39
0.611463 -0.212191 6.11983 106 104 90
-1.77072 -0.22099 6.59134 144 100 75
0.837546 -0.100684 6.75247 154 134 100
0.272255 0.0377313 6.74791 155 113 94
-1.92636 0.128829 6.96937 40 12 4
-0.935099 0.129057 6.89949 66 24 15
-1.84403 0.194653 6.80914 82 36 20
-1.86588 0.213859 6.87185 162 140 119
-1.8186 0.257437 6.8488 96 52 30
-1.7031 0.368059 6.39925 112 20 14
-1.25157 0.702904 7.07299 70 26 10
-0.782058 0.701076 6.38291 87 62 52
-0.699022 0.96164 6.48668 87 56 46
-0.64457 0.966671 6.4365 88 54 45
0.517603 -0.676054 6.38944 168 116 90
-1.73162 -0.128582 6.69048 47 11 2
-0.797268 -0.104179 6.87835 139 88 65
-1.73124 -0.0448747 6.78362 28 6 6
-0.8615 0.0503484 6.86668 136 85 66
-1.8617 0.0881738 6.75736 194 142 104
-1.34962 0.244688 6.49209 87 40 30
0.215109 0.311063 6.81974 149 120 95
-0.372147 0.730273 6.36723 150 124 112
-1.56109 -0.146592 6.81216 147 137 90
-1.78723 0.0981775 6.50533 124 84 54
0.572738 0.245965 6.41874 180 154 133
0.738793 0.272289 6.60404 36 28 10
0.149251 0.329044 6.89512 147 91 61
-1.84527 0.743117 6.95527 100 62 29
-0.649518 0.748443 6.28283 72 54 46
-2.01247 0.885954 6.71989 158 128 111
-0.590074 0.974461 6.79134 100 23 20
0.495115 0.0331088 6.40429 132 72 54
0.650529 0.0263985 6.47189 61 26 20
-1.32827 0.263264 6.58443 82 42 32
0.482666 0.400205 6.56234 38 23 16
0.134884 0.542296 6.7649 121 36 18
0.838529 0.628815 6.64428 168 131 118
0.359997 0.677937 6.58358 190 154 145
0.763212 0.682617 6.5975 84 56 44
-1.94429 1.04087 6.38797 100 40 38
-1.95877 0.597991 6.27265 120 106 113
0.510852 -0.663238 6.34778 172 122 94
0.317532 0.0913126 6.84988 50 16 2
0.569844 -0.69176 6.3853 157 140 94
0.438244 -0.0676497 6.57235 104 98 83
0.587749 0.189777 6.45128 76 32 18
0.180931 0.491307 6.79356 146 70 44
0.467073 -0.70543 6.4154 152 146 102
0.463737 -0.636102 6.32717 162 113 82
0.499958 -0.614125 6.31667 54 30 16
0.555251 -0.637497 6.37884 32 17 8
0.95785 -0.555815 6.4972 138 108 84
0.0910755 -0.454692 6.56751 102 76 40
0.213 0.00912399 6.67818 124 90 70
-0.654659 0.739696 6.30409 156 139 133
0.557459 -0.677909 6.36766 128 108 65
0.751918 -0.150646 7.10952 102 51 44
-1.39324 0.268066 6.81357 153 104 90
0.133992 -0.351154 6.2931 154 124 108
-0.858076 0.145454 6.9976 87 46 24
-1.63051 -0.215832 6.69131 74 31 18
-1.88941 0.0920256 6.80609 188 135 106
-0.966761 -0.147216 6.88791 88 42 20
-1.70459 -0.0702893 6.73956 164 101 79
-0.801529 -0.0650702 6.8645 24 8 4
0.261689 0.116645 6.74587 50 13 4
-0.983494 -0.381544 6.81773 112 74 54
-1.04051 -0.404489 6.82759 102 70 52
0.201689 0.250562 6.8674 96 72 59
0.401506 0.199997 6.50279 186 142 120
0.523663 0.581549 6.51419 180 156 150
0.392704 0.510803 6.52917 139 106 91
-2.00143 0.583533 6.20853 112 107 117
-1.85936 -0.177786 6.71695 82 46 28
-0.666932 0.914164 6.50771 126 98 92
-1.72464 -0.188331 6.67394 171 115 96
