ply
format ascii 1.0
element vertex 170
property float x
property float y
property float z
property uchar red
property uchar green
property uchar blue
end_header
-0.0299549 0.377524 -1.6694 0 255 0
0.029287 0.513926 -1.39462 0 255 0
0.0290718 -0.267271 -2.54356 0 255 0
0.876325 2.67232 3.08666 0 255 0
-0.187569 0.67349 -1.17294 0 255 0
0.0638718 -0.0278427 -3.08125 0 255 0
-0.159496 0.0754471 -1.5241 0 255 0
0.0179429 0.113585 -1.51327 0 255 0
0.360738 0.379511 -1.48734 0 255 0
0.0339065 0.509638 -1.42888 0 255 0
0.248629 0.566785 -1.44953 0 255 0
0.0292878 0.513926 -1.39462 0 255 0
-0.262407 0.381584 -1.36458 0 255 0
-0.0566045 0.125869 -1.27708 0 255 0
-0.882912 -0.09317 -1.93095 0 255 0
-1.00473 1.42175 8.42366 147 130 105
0.149284 0.525269 -0.828154 118 84 57
0.0292878 0.513926 -1.39462 62 60 41
0.0292878 0.513926 -1.39462 40 35 12
0.0292904 0.513925 -1.39461 146 144 107
0.0292879 0.513926 -1.39462 30 26 14
0.0292873 0.513926 -1.39461 90 50 33
0.0292879 0.513926 -1.39462 32 28 14
0.0292848 0.513911 -1.39458 108 106 81
0.0292875 0.513924 -1.39461 118 118 93
0.0292878 0.513926 -1.39462 60 54 35
0.822649 0.354604 1.23197 114 92 60
0.928212 0.268103 1.21241 74 65 24
0.411787 0.531877 0.391234 60 50 34
0.920612 0.269378 1.21912 86 82 40
0.347772 0.542609 0.199791 99 84 57
0.421149 0.566943 1.08888 35 24 16
-0.0648081 0.32714 -0.359769 128 114 74
-0.0271786 0.200503 -0.758628 124 102 69
-0.0464106 0.488624 -0.703096 128 106 86
-0.165643 -0.719156 1.31598 116 114 66
0.363469 -2.00432 16.7738 148 142 114
-0.199465 0.523147 0.652002 134 111 88
-0.105984 0.405508 0.220593 83 74 49
-0.193082 0.183426 1.30234 106 96 63
-0.207263 0.551028 0.714576 62 34 18
0.160105 0.0619938 1.04988 138 138 96
-0.153354 1.03671 1.25506 96 48 26
-0.142474 -0.111022 1.4911 146 139 88
0.417127 0.56341 1.02217 29 9 4
0.48403 0.558183 0.974168 128 86 64
-0.130207 0.634288 1.14955 43 8 1
0.873532 0.30231 1.0958 92 94 56
0.204468 1.11752 1.35345 66 33 28
0.362978 0.587719 0.970172 56 33 22
0.371988 1.04901 1.47088 112 97 84
-0.0253414 1.09404 1.22573 86 48 36
-0.150123 0.486281 1.05007 142 94 78
0.59888 0.349449 1.43625 88 69 50
-0.273639 0.836912 1.42479 97 63 48
0.0109007 1.02456 1.21733 113 90 87
0.253765 0.593005 0.816859 144 121 111
-0.535025 0.517112 0.615563 62 62 33
0.859931 -0.0720821 1.84012 74 80 57
0.506851 -0.0474935 1.30145 94 100 58
0.414503 0.811331 1.1936 34 16 9
0.357427 0.948177 1.27924 118 93 88
1.04002 0.00980815 0.620375 40 45 11
0.983726 -0.00444978 0.725856 102 106 64
0.857347 0.0362805 0.744001 84 87 62
0.500245 -0.0335512 1.16008 98 103 62
0.545904 0.123178 1.00362 70 76 56
0.489004 0.153578 0.972316 84 87 70
-0.188654 -0.0218078 1.31827 68 42 17
0.243286 1.15778 1.4646 56 30 22
0.755603 0.0519746 0.794359 84 88 64
0.601973 0.0749146 1.26912 52 56 32
0.626227 0.423166 1.16637 112 105 72
-0.117434 0.221447 1.0959 91 74 54
-0.314751 0.377025 0.548413 152 144 124
0.411295 0.872997 1.24071 30 14 6
0.626288 -0.184727 1.2873 150 152 106
-0.247331 -0.231193 1.57161 108 104 60
-0.134816 -0.0367969 1.44006 152 144 84
-0.550327 0.516172 0.638422 113 106 82
-0.109621 1.02337 1.25462 126 86 76
0.756523 0.340765 1.12238 102 100 68
0.0294199 0.502524 -1.35721 120 108 78
0.287009 0.526339 -0.272102 68 39 14
0.130499 0.534941 -0.890064 82 59 46
0.289542 0.604443 -0.125542 48 33 24
0.388937 0.427506 -0.161697 144 146 110
0.721537 0.374166 1.01595 78 62 34
0.111395 0.516721 -0.958341 44 18 8
0.101913 0.537123 -0.973107 84 48 37
0.00636063 0.531501 -1.01112 30 3 0
-0.011488 0.176198 -0.579843 61 60 22
0.401169 0.424873 -0.120218 144 146 110
-0.00942583 0.482131 -1.02158 70 54 31
0.329479 0.452929 -0.395455 64 57 23
0.597707 0.436485 1.16726 84 60 28
0.266265 0.529732 0.842692 72 68 54
0.602601 0.662945 1.2751 70 52 34
0.439032 0.627439 0.969137 54 17 3
-0.0700696 0.473487 1.02523 60 14 1
-0.00526601 0.500111 0.961977 80 41 22
0.159547 0.558473 0.80629 114 91 72
0.349888 0.649469 0.965307 126 106 101
-0.14577 0.489193 1.03027 158 112 96
0.158415 0.590974 0.732857 122 102 87
0.536655 0.752015 1.31299 43 24 16
0.331916 0.688107 0.997019 134 116 110
-0.193817 0.535195 1.12791 106 66 58
0.303605 0.738664 1.02921 130 110 108
0.0828012 0.793936 1.06696 125 100 93
0.125895 1.07484 1.26209 64 32 29
0.137905 1.08614 1.26452 69 46 46
0.00313763 1.10431 1.28268 102 68 63
0.344824 0.576179 0.957491 109 80 64
-0.250098 0.385274 1.24331 160 134 120
0.152388 0.531453 0.869068 56 22 4
0.347228 0.64378 0.881313 78 59 55
0.324557 0.696635 1.00377 118 102 98
0.420324 0.805829 1.16412 111 90 81
-0.122943 0.6265 1.10266 38 6 0
0.179124 1.00944 1.28508 100 74 71
-0.345257 -0.266639 1.69635 100 74 30
0.0123645 0.00786932 1.22665 146 144 97
0.156204 0.515673 -0.849632 74 44 28
0.26811 0.517315 0.841959 11 10 2
0.512034 0.611135 0.994762 91 66 54
0.363383 0.57111 0.932588 136 116 107
0.602286 0.65758 1.23958 64 55 34
0.334006 0.625112 0.895722 88 49 40
0.361313 0.64572 0.953377 39 18 14
0.141735 0.591717 0.797008 82 52 44
-0.221886 0.527753 1.20815 32 6 0
0.0594914 0.694844 0.990689 118 78 70
0.398392 0.857091 1.2232 115 103 100
0.13311 0.762682 0.0376957 126 90 70
-0.119967 0.949649 1.36621 112 68 56
0.795342 0.0420177 0.734734 82 86 56
0.624608 0.596356 1.23842 68 50 34
0.438158 0.562328 1.04316 146 100 77
-0.259975 0.331401 1.18878 94 52 21
0.345592 0.56522 0.946421 44 26 16
0.580181 0.710056 1.29648 79 66 50
0.471251 0.818935 1.24049 46 22 10
-0.250404 0.692678 1.32996 94 64 48
-0.18964 0.723649 1.22049 50 14 10
-0.00671605 1.10214 1.2799 126 92 84
0.00149982 0.468234 0.964686 82 50 36
-0.138188 0.441161 1.01193 74 22 4
0.157003 0.547861 0.813217 108 76 54
0.523244 0.750842 1.23565 36 18 8
-0.170685 0.637896 1.20688 28 7 2
0.15413 1.00218 1.24741 62 31 27
-0.226773 0.362476 1.10686 83 42 18
-0.393181 0.366948 0.648866 104 100 78
0.464037 0.760221 1.26284 98 84 76
0.147855 0.421838 -0.515196 152 150 102
0.603212 0.638597 1.21776 125 125 102
0.585222 0.688523 1.30309 98 87 74
0.0799077 -0.157394 1.25996 76 84 54
0.103583 -0.0866064 1.22755 82 86 54
-0.147612 -0.0540844 1.38308 40 22 6
0.352464 0.556141 0.944075 87 60 48
-0.186959 0.383389 1.09441 87 44 12
-0.190217 0.472166 1.07367 124 91 82
-0.193574 0.53644 1.11588 115 81 72
-0.147492 -0.0589422 1.39544 54 36 19
-0.19002 -0.0218465 1.31254 76 50 25
-0.266316 0.013376 1.28865 152 144 86
0.593409 0.597435 1.09914 76 61 40
-0.149599 -0.0469818 1.32563 54 37 17
