ply
format ascii 1.0
element vertex 1230
property float x
property float y
property float z
property uchar red
property uchar green
property uchar blue
end_header
0.775284 -0.33343 -0.51191 102 100 74
0.78927 -0.32017 -0.508815 165 164 143
0.792453 -0.319669 -0.506941 166 165 136
0.834545 -0.317171 -0.509778 178 174 134
0.794421 -0.315657 -0.508312 165 164 135
0.776531 -0.316745 -0.496765 181 182 134
0.794792 -0.315298 -0.508221 159 158 128
0.816387 -0.314533 -0.499216 218 230 192
0.77952 -0.316035 -0.495923 150 148 106
0.833819 -0.313029 -0.500777 195 200 166
0.836515 -0.312687 -0.501994 228 226 190
0.836107 -0.311962 -0.503714 147 130 92
0.836155 -0.311796 -0.503015 115 94 58
0.836518 -0.311161 -0.504722 225 215 180
0.833098 -0.310839 -0.508746 126 94 63
0.836108 -0.310551 -0.50106 192 178 146
0.83625 -0.310502 -0.50538 130 100 64
0.833193 -0.309915 -0.504504 190 190 156
0.837612 -0.309955 -0.499428 152 138 106
0.835619 -0.307792 -0.507993 211 176 153
0.834859 -0.307354 -0.51069 167 131 106
0.787895 -0.308601 -0.490272 114 98 65
0.833693 -0.305119 -0.511979 200 172 154
0.818737 -0.302721 -0.499098 84 69 51
0.829699 -0.301338 -0.500293 182 162 146
0.829814 -0.301032 -0.500044 101 75 54
0.831799 -0.300893 -0.498829 102 70 36
0.828728 -0.299952 -0.503854 64 32 10
0.830391 -0.299413 -0.500892 74 41 18
0.829077 -0.297251 -0.511509 186 144 126
0.825744 -0.294529 -0.51331 100 72 54
0.789381 -0.295373 -0.510562 88 64 47
0.790443 -0.295118 -0.509804 164 152 153
0.790194 -0.294918 -0.509042 234 229 238
0.790639 -0.294874 -0.510551 148 138 139
0.81618 -0.291913 -0.520058 148 126 112
0.81699 -0.291259 -0.519176 70 52 32
0.787686 -0.2886 -0.498472 190 150 132
0.788904 -0.290231 -0.509069 158 120 105
0.789537 -0.289819 -0.508983 85 47 31
0.790051 -0.289838 -0.51031 81 41 24
0.788407 -0.286698 -0.492543 188 152 136
0.816006 -0.288627 -0.518886 84 50 46
0.788892 -0.286122 -0.495401 83 41 19
0.823247 -0.285333 -0.512167 102 70 64
0.788444 -0.28413 -0.49168 199 161 137
0.78764 -0.283868 -0.491366 182 155 128
0.816466 -0.286209 -0.516473 65 36 31
0.788393 -0.284201 -0.494033 80 40 20
0.788403 -0.283353 -0.493759 90 49 28
0.797475 -0.286196 -0.514944 152 135 130
0.823018 -0.282199 -0.509085 119 84 80
0.788392 -0.282368 -0.494296 70 35 16
0.789782 -0.280326 -0.489767 193 176 156
0.78997 -0.2808 -0.491933 188 160 146
0.790079 -0.280133 -0.491772 187 157 148
0.817266 -0.280805 -0.512653 63 35 30
0.815903 -0.27036 -0.506415 178 152 149
0.767908 -0.339032 -0.513161 123 120 97
0.770411 -0.337167 -0.512886 183 180 162
0.771854 -0.336528 -0.512423 114 114 82
0.771871 -0.334762 -0.511579 146 144 122
0.77487 -0.333011 -0.512209 160 158 135
0.776542 -0.333176 -0.510473 128 127 92
0.780949 -0.324961 -0.512867 160 158 134
0.790085 -0.322918 -0.505691 184 184 146
0.786776 -0.322508 -0.50953 163 161 138
0.805616 -0.318625 -0.505498 203 210 167
0.837338 -0.317249 -0.505376 195 191 151
0.83718 -0.316976 -0.506142 140 136 98
0.839446 -0.317296 -0.501724 84 72 25
0.794513 -0.31573 -0.507824 158 158 128
0.778889 -0.315997 -0.497657 186 187 144
0.835286 -0.313142 -0.503564 129 126 86
0.782243 -0.315384 -0.494188 206 208 164
0.782323 -0.315074 -0.498099 156 158 114
0.836514 -0.311982 -0.504048 176 164 128
0.834662 -0.312186 -0.493368 198 194 152
0.835434 -0.310588 -0.506124 196 168 138
0.830853 -0.310926 -0.496541 129 110 77
0.836343 -0.310616 -0.50062 146 133 100
0.787182 -0.312619 -0.498055 186 188 148
0.787613 -0.312449 -0.498274 159 162 120
0.83348 -0.309713 -0.506621 141 128 96
0.78125 -0.311327 -0.498034 197 188 142
0.834605 -0.307165 -0.511061 165 128 104
0.825078 -0.306475 -0.497399 158 160 122
0.788588 -0.306724 -0.488561 116 77 46
0.788455 -0.306028 -0.487074 221 202 167
0.78699 -0.305609 -0.493189 174 151 111
0.812334 -0.303805 -0.502958 87 80 68
0.829988 -0.301496 -0.499605 202 185 172
0.832283 -0.300884 -0.497949 101 70 38
0.83076 -0.299943 -0.499447 81 48 24
0.829355 -0.299232 -0.503878 148 120 91
0.827259 -0.296817 -0.509177 82 52 26
0.82882 -0.294934 -0.511617 172 116 92
0.790211 -0.294794 -0.510392 90 79 78
0.788912 -0.294871 -0.511159 129 104 84
0.791131 -0.293965 -0.511057 92 62 53
0.79771 -0.292012 -0.515989 132 109 99
0.788844 -0.290226 -0.509745 158 120 106
0.787476 -0.287496 -0.495007 123 84 66
0.789539 -0.2899 -0.5091 95 56 40
0.79009 -0.289732 -0.508419 134 92 77
0.788116 -0.286998 -0.493781 179 144 128
0.790528 -0.289551 -0.508377 91 50 34
0.823145 -0.284882 -0.511367 99 67 64
0.788335 -0.284239 -0.492036 174 135 111
0.788129 -0.283783 -0.495465 80 42 22
0.789725 -0.281011 -0.49304 162 134 118
0.816199 -0.278301 -0.512023 166 130 126
0.822066 -0.274346 -0.504074 90 52 50
0.79535 -0.270511 -0.495848 171 132 120
0.773255 -0.336355 -0.510811 176 172 127
0.774919 -0.333048 -0.512355 148 146 122
0.787829 -0.324688 -0.506974 196 198 157
0.786765 -0.322554 -0.509793 162 160 137
0.790052 -0.322751 -0.506384 196 197 157
0.789244 -0.32015 -0.509095 154 155 134
0.787429 -0.318 -0.511875 182 179 158
0.779494 -0.316065 -0.496123 194 192 148
0.83497 -0.313205 -0.504213 128 125 85
0.782298 -0.31499 -0.498244 155 157 112
0.800823 -0.313188 -0.508075 229 232 194
0.835591 -0.311824 -0.504383 120 104 68
0.835091 -0.310474 -0.502675 167 154 122
0.835395 -0.30991 -0.509322 199 181 150
0.835045 -0.309572 -0.503894 165 153 122
0.782214 -0.311773 -0.500218 89 76 50
0.829059 -0.308398 -0.495039 196 195 160
0.835264 -0.307969 -0.509548 168 134 104
0.788395 -0.306766 -0.488425 120 83 56
0.787514 -0.305716 -0.490139 160 138 99
0.787339 -0.305376 -0.485432 138 96 67
0.826063 -0.302546 -0.502216 68 54 33
0.830509 -0.301522 -0.498722 196 178 163
0.828827 -0.297272 -0.512122 192 151 133
0.826641 -0.297052 -0.510481 80 50 24
0.825863 -0.29452 -0.513198 108 76 56
0.789863 -0.295073 -0.510483 194 184 184
0.788903 -0.29479 -0.510764 129 102 82
0.815715 -0.291361 -0.520522 89 62 41
0.789617 -0.290111 -0.510983 134 93 76
0.790608 -0.289439 -0.508975 72 32 17
0.788651 -0.286453 -0.49332 94 57 38
0.792901 -0.289865 -0.515779 187 146 130
0.823881 -0.285005 -0.510774 114 82 77
0.789674 -0.283103 -0.495366 66 23 10
0.788403 -0.282536 -0.492677 200 179 157
0.788508 -0.281943 -0.49403 72 46 27
0.789612 -0.281155 -0.49386 186 161 148
0.789017 -0.281147 -0.494416 197 184 162
0.816183 -0.275825 -0.510257 186 164 164
0.816621 -0.274747 -0.509611 82 53 53
0.790041 -0.347845 -0.488876 188 188 144
0.773093 -0.33532 -0.515112 174 171 126
0.783418 -0.322597 -0.512599 176 174 148
0.785571 -0.320244 -0.512094 163 160 137
0.789667 -0.315738 -0.510795 168 166 140
0.782355 -0.315099 -0.497119 170 170 126
0.796214 -0.314167 -0.508301 172 172 143
0.836117 -0.311838 -0.504803 184 176 140
0.837663 -0.310603 -0.498222 153 138 105
0.835178 -0.310254 -0.507371 126 96 59
0.787715 -0.31246 -0.497886 162 165 123
0.835797 -0.310138 -0.502625 116 95 66
0.8336 -0.309877 -0.503673 181 183 148
0.834937 -0.309637 -0.504084 202 193 160
0.82956 -0.300623 -0.505411 138 104 64
0.825575 -0.294915 -0.511155 77 44 24
0.788721 -0.294907 -0.511362 132 103 80
0.78855 -0.293313 -0.509761 116 74 50
0.81657 -0.291737 -0.51792 44 29 15
0.81666 -0.291589 -0.519051 180 160 145
0.823331 -0.292001 -0.526188 230 227 212
0.814286 -0.291311 -0.520372 190 148 126
0.789471 -0.289737 -0.509112 96 58 42
0.78829 -0.2842 -0.49236 196 159 134
0.787647 -0.283945 -0.491932 166 136 108
0.788441 -0.283857 -0.494147 74 37 20
0.790028 -0.282745 -0.492808 62 21 7
0.78853 -0.282223 -0.491838 212 194 172
0.788881 -0.281493 -0.492263 62 34 16
0.815735 -0.283495 -0.515535 62 37 32
0.814589 -0.282215 -0.515171 173 140 138
0.795478 -0.282527 -0.510578 158 118 104
0.817334 -0.274398 -0.50824 85 54 53
0.815768 -0.270828 -0.5069 160 130 128
0.792787 -0.340364 -0.494074 178 178 148
0.773219 -0.336269 -0.511117 164 160 117
0.783354 -0.322771 -0.511738 151 150 124
0.789436 -0.319978 -0.509067 162 161 140
0.774058 -0.31675 -0.497468 178 176 129
0.833723 -0.313007 -0.500368 219 227 190
0.79615 -0.314157 -0.507519 152 150 122
0.83671 -0.311872 -0.503224 174 156 120
0.836051 -0.310062 -0.507941 202 182 154
0.833955 -0.309922 -0.502665 174 178 141
0.783169 -0.310461 -0.503484 172 144 117
0.831366 -0.299516 -0.499281 73 40 16
0.802811 -0.302863 -0.52791 133 132 113
0.798037 -0.29744 -0.534351 124 132 96
0.790111 -0.294524 -0.510892 76 55 43
0.81495 -0.291252 -0.519081 174 134 112
0.792968 -0.290993 -0.515319 136 92 72
0.816426 -0.287022 -0.51724 138 100 100
0.787606 -0.284013 -0.491901 179 153 124
0.788392 -0.282371 -0.491609 206 191 170
0.789867 -0.282754 -0.493892 56 14 2
0.788644 -0.281553 -0.492674 138 120 99
0.815136 -0.283708 -0.516369 70 47 46
0.789665 -0.28039 -0.491475 202 189 168
0.775623 -0.334585 -0.509842 163 160 124
0.776026 -0.333532 -0.511631 206 204 166
0.836658 -0.312723 -0.501877 194 196 160
0.835977 -0.311448 -0.501062 86 77 36
0.835172 -0.311452 -0.503823 100 80 46
0.835372 -0.311078 -0.505894 187 157 126
0.83716 -0.310412 -0.504046 130 100 64
0.836603 -0.31003 -0.506728 208 184 157
0.835328 -0.309825 -0.500146 158 162 125
0.834102 -0.309163 -0.506156 227 230 190
0.787924 -0.308609 -0.491841 225 222 186
0.828486 -0.304246 -0.501623 204 206 166
0.787023 -0.30549 -0.485931 183 138 110
0.83036 -0.302802 -0.49911 104 70 40
0.829712 -0.301996 -0.497611 140 120 83
0.8247 -0.302372 -0.504824 50 28 12
0.831178 -0.301076 -0.500493 108 74 42
0.788594 -0.290116 -0.510313 128 91 75
0.787807 -0.284859 -0.495174 160 122 98
0.774031 -0.317208 -0.495463 212 212 162
0.836697 -0.312851 -0.501944 169 172 136
0.835478 -0.310093 -0.50614 172 138 110
0.823035 -0.305115 -0.495475 73 37 20
0.809956 -0.300511 -0.509353 102 96 77
0.83603 -0.310156 -0.505137 175 140 112
0.835076 -0.308262 -0.50487 223 232 192
0.825519 -0.308232 -0.489289 206 209 178
0.790536 -0.28925 -0.508148 74 37 21
0.838503 -0.317299 -0.50421 130 130 93
0.767438 -0.31406 -0.489384 140 120 70
0.791342 -0.293821 -0.510254 68 37 28
0.790977 -0.291607 -0.514444 148 106 84
0.788427 -0.281966 -0.494452 58 36 20
0.779519 -0.316029 -0.495754 130 131 86
0.789028 -0.281896 -0.493459 131 102 84
0.827001 -0.304254 -0.504888 184 186 152
0.83427 -0.313087 -0.499733 198 205 168
0.83742 -0.311374 -0.503096 204 195 160
0.791524 -0.293843 -0.509882 56 27 21
0.788689 -0.283237 -0.491899 56 24 10
0.836309 -0.311983 -0.504082 154 135 100
0.835774 -0.311307 -0.501488 64 54 22
0.836345 -0.310012 -0.506758 174 145 114
0.828649 -0.304259 -0.502005 195 200 163
0.833753 -0.309828 -0.50306 85 89 53
0.774503 -0.316963 -0.496628 143 142 92
0.826303 -0.295736 -0.511555 154 109 86
0.796373 -0.295763 -0.53478 141 122 97
0.826745 -0.286329 -0.532313 144 139 123
0.835891 -0.312437 -0.503344 185 185 146
0.815996 -0.28659 -0.517237 61 30 26
0.82773 -0.286182 -0.530225 122 119 98
0.79892 -0.290964 -0.54107 82 68 55
0.835929 -0.262491 -0.450045 87 58 56
0.824401 -0.294741 -0.513452 114 88 72
0.808168 -0.291494 -0.522149 54 21 12
0.825951 -0.287979 -0.531063 196 192 179
0.816716 -0.28374 -0.513896 100 70 66
0.797322 -0.298533 -0.531327 114 113 82
0.807632 -0.292986 -0.524162 134 99 88
0.83169 -0.302459 -0.498126 102 72 42
0.826433 -0.293839 -0.511998 127 105 96
0.824256 -0.293883 -0.516425 72 50 31
0.829024 -0.301287 -0.508275 149 131 108
0.824769 -0.294043 -0.510542 88 74 54
0.814819 -0.291257 -0.519327 149 106 82
0.834394 -0.310466 -0.504295 126 112 84
0.831331 -0.296936 -0.500503 116 78 61
0.8283 -0.296706 -0.511543 174 128 104
0.827826 -0.277412 -0.529231 194 178 169
0.80815 -0.292377 -0.522647 138 104 98
0.824914 -0.295061 -0.511867 64 34 22
0.815647 -0.286051 -0.515866 49 20 17
0.809452 -0.293999 -0.520092 88 64 56
0.800404 -0.293647 -0.534869 142 139 118
0.808396 -0.290832 -0.521421 58 22 14
0.814471 -0.286743 -0.502057 170 133 128
0.826266 -0.294894 -0.511554 138 100 73
0.826087 -0.294487 -0.511922 131 99 79
0.790019 -0.322818 -0.506069 162 162 122
0.808893 -0.293999 -0.524187 128 108 102
0.807633 -0.293025 -0.523171 58 28 16
0.816125 -0.288559 -0.518653 58 30 25
0.821914 -0.270061 -0.501043 152 116 112
0.815539 -0.266784 -0.504234 149 120 118
0.815391 -0.265923 -0.503855 142 117 115
0.81314 -0.262811 -0.502341 138 106 106
0.812488 -0.262112 -0.501414 78 48 43
0.809128 -0.261584 -0.50013 101 58 48
0.814088 -0.261049 -0.499997 151 118 116
0.81168 -0.261706 -0.50201 132 108 105
0.809431 -0.2613 -0.502243 114 76 66
0.788694 -0.350048 -0.486132 162 162 120
0.790087 -0.348147 -0.48787 157 158 114
0.770921 -0.337627 -0.51133 109 106 84
0.846023 -0.334715 -0.524711 194 195 151
0.831051 -0.298283 -0.510621 160 152 128
0.826574 -0.295976 -0.511593 174 130 112
0.798276 -0.297529 -0.533777 120 126 90
0.825218 -0.294974 -0.51234 78 50 32
0.808794 -0.294069 -0.524548 92 76 70
0.807381 -0.293059 -0.52386 44 18 8
0.816374 -0.283774 -0.515549 114 84 82
0.795444 -0.282548 -0.510919 150 106 90
0.822563 -0.278268 -0.506861 92 59 56
0.816024 -0.274852 -0.509705 138 118 118
0.815642 -0.26587 -0.503227 126 100 98
0.808443 -0.262312 -0.501443 152 104 92
0.814304 -0.261026 -0.499107 154 124 122
0.81433 -0.260976 -0.500027 132 100 98
0.794315 -0.319338 -0.50474 146 149 110
0.792922 -0.300971 -0.522131 100 104 94
0.826005 -0.295827 -0.51345 110 73 50
0.79883 -0.297593 -0.534302 102 114 74
0.825905 -0.294917 -0.512119 150 114 88
0.787966 -0.296134 -0.508131 110 82 72
0.807031 -0.291303 -0.522859 125 106 98
0.822336 -0.274239 -0.503803 57 29 26
0.828269 -0.278162 -0.533154 96 68 46
0.815598 -0.27082 -0.507605 148 126 124
0.826399 -0.307887 -0.499767 172 181 142
0.800586 -0.297704 -0.534532 140 146 123
0.817076 -0.278044 -0.511266 60 30 28
0.791203 -0.275539 -0.491642 152 126 104
0.826651 -0.277811 -0.532081 106 78 62
0.812339 -0.263097 -0.504339 138 106 104
0.792509 -0.303496 -0.492132 52 32 15
0.829176 -0.297065 -0.511318 162 120 106
0.787978 -0.29609 -0.508731 102 74 60
0.795681 -0.293423 -0.537047 191 156 136
0.80945 -0.263317 -0.503588 117 79 72
0.814115 -0.261524 -0.501046 132 99 96
0.832913 -0.312905 -0.502219 198 206 161
0.789567 -0.304435 -0.490032 71 36 12
0.787523 -0.288527 -0.497875 130 93 71
0.815655 -0.271034 -0.507586 127 96 94
0.770586 -0.315675 -0.495698 92 82 44
0.800173 -0.31347 -0.509584 204 211 164
0.815383 -0.307207 -0.512319 187 189 157
0.831522 -0.303502 -0.512278 170 131 116
0.787631 -0.305823 -0.48784 168 140 104
0.828377 -0.304427 -0.502017 170 177 136
0.817504 -0.278509 -0.511016 125 90 86
0.794755 -0.341008 -0.493737 143 149 108
0.844 -0.333487 -0.521975 102 100 60
0.792023 -0.313562 -0.510562 137 138 108
0.831002 -0.303624 -0.512418 184 145 126
0.791019 -0.294331 -0.509247 117 105 104
0.791135 -0.291007 -0.510928 93 48 24
0.789542 -0.281114 -0.49235 90 62 45
0.823025 -0.275718 -0.505805 118 90 84
0.814805 -0.262053 -0.5003 130 94 92
0.80863 -0.262333 -0.501271 144 97 84
0.814185 -0.261399 -0.5001 126 94 91
0.842565 -0.33291 -0.523919 146 146 104
0.791469 -0.302001 -0.524526 110 112 92
0.778097 -0.299548 -0.533484 177 173 138
0.80045 -0.297712 -0.535166 136 141 119
0.818484 -0.291346 -0.519456 152 132 120
0.816329 -0.291195 -0.51934 76 50 32
0.793647 -0.290095 -0.515346 176 130 109
0.788557 -0.281759 -0.493666 68 44 26
0.795354 -0.285645 -0.54515 136 144 128
0.826887 -0.278206 -0.529302 159 142 132
0.811747 -0.274078 -0.511124 147 104 102
0.815917 -0.271183 -0.507345 151 118 118
0.801334 -0.270987 -0.504141 145 108 104
0.811796 -0.262309 -0.502133 118 84 76
0.785459 -0.327017 -0.506811 154 156 113
0.792138 -0.32089 -0.505905 146 148 108
0.832967 -0.312757 -0.502628 178 187 148
0.79648 -0.301935 -0.51895 106 110 97
0.797215 -0.292692 -0.538528 94 102 72
0.817017 -0.284069 -0.515288 79 52 49
0.795235 -0.285659 -0.545373 132 135 119
0.815474 -0.26651 -0.504326 151 126 122
0.836764 -0.311238 -0.504528 197 192 155
0.786716 -0.307117 -0.511061 192 188 142
0.81567 -0.291892 -0.519661 34 20 11
0.827521 -0.278422 -0.534236 95 66 48
0.766438 -0.279604 -0.544681 98 91 67
0.83257 -0.304641 -0.511853 185 147 138
0.789754 -0.295147 -0.509802 116 100 94
0.797569 -0.296355 -0.535346 96 102 66
0.809511 -0.293291 -0.523783 24 12 8
0.817231 -0.291942 -0.52323 99 88 71
0.791104 -0.297587 -0.573749 116 73 50
0.816075 -0.275177 -0.509895 129 109 108
0.829209 -0.309642 -0.49673 158 162 121
0.7885 -0.295045 -0.510605 110 79 58
0.790429 -0.294834 -0.507878 183 173 183
0.801141 -0.294518 -0.534463 26 12 7
0.81571 -0.286466 -0.516626 74 46 40
0.813942 -0.265885 -0.503086 135 96 98
0.777336 -0.299368 -0.53184 184 178 154
0.790304 -0.294446 -0.509975 66 48 36
0.793036 -0.290821 -0.514544 124 78 52
0.827524 -0.27948 -0.53359 194 184 174
0.815175 -0.307368 -0.504532 100 91 78
0.77705 -0.299334 -0.531923 186 180 156
0.815302 -0.283614 -0.515217 75 48 44
0.807461 -0.290781 -0.520575 84 56 46
0.800019 -0.287935 -0.539998 59 28 25
0.815912 -0.276079 -0.511189 154 134 133
0.788528 -0.297471 -0.50862 140 121 106
0.809124 -0.29334 -0.522487 100 68 58
0.823351 -0.292571 -0.523733 190 176 161
0.798384 -0.296373 -0.562823 150 126 102
0.817416 -0.28611 -0.516258 42 22 14
0.815707 -0.270932 -0.508459 108 77 75
0.80142 -0.289756 -0.537774 114 78 72
0.823017 -0.29262 -0.524335 182 171 156
0.799445 -0.295325 -0.54399 64 37 18
0.835702 -0.311038 -0.505553 156 128 100
0.827402 -0.303088 -0.498771 62 44 28
0.828557 -0.304362 -0.501222 167 158 132
0.827393 -0.303081 -0.499098 65 44 28
0.815528 -0.307474 -0.512064 183 182 150
0.798596 -0.280673 -0.511711 98 76 74
0.807815 -0.307022 -0.55273 94 90 56
0.769075 -0.33759 -0.510026 78 80 52
0.829574 -0.28942 -0.491147 70 56 43
0.794418 -0.267879 -0.482047 124 88 73
0.793754 -0.268142 -0.482142 162 142 124
0.815739 -0.287929 -0.512447 65 30 25
0.797279 -0.289368 -0.518437 111 60 42
0.797745 -0.282983 -0.510513 32 11 8
0.802471 -0.293758 -0.55644 126 96 85
0.771361 -0.336667 -0.512748 122 120 98
0.8022 -0.298512 -0.555942 170 158 137
0.818185 -0.291963 -0.521468 103 96 76
0.798161 -0.32709 -0.503149 124 138 94
0.829566 -0.300479 -0.502099 88 56 36
0.816835 -0.284326 -0.499621 53 28 24
0.798173 -0.327081 -0.503237 124 137 94
0.767383 -0.338599 -0.513718 76 74 52
0.767459 -0.338445 -0.514961 80 80 56
0.816983 -0.305374 -0.511129 84 66 47
0.789933 -0.297727 -0.555439 110 96 78
0.817835 -0.29173 -0.511429 95 74 61
0.791095 -0.296921 -0.579212 98 76 62
0.790497 -0.307378 -0.483475 170 176 131
0.78934 -0.297824 -0.557433 118 100 76
0.815179 -0.291775 -0.520148 51 28 14
0.791221 -0.296851 -0.578126 113 92 73
0.803213 -0.325671 -0.501771 152 153 108
0.792246 -0.320853 -0.50587 118 120 79
0.824649 -0.318223 -0.51594 96 100 81
0.821265 -0.314976 -0.514409 80 86 71
0.7707 -0.315626 -0.495593 50 40 10
0.782365 -0.315189 -0.495422 86 90 44
0.785778 -0.313613 -0.495719 143 146 105
0.81631 -0.310542 -0.513026 112 115 102
0.788088 -0.312108 -0.49701 114 116 78
0.790239 -0.31091 -0.49925 125 130 86
0.825193 -0.310434 -0.492765 110 107 76
0.804658 -0.308888 -0.521116 144 147 118
0.796549 -0.308934 -0.514737 116 118 85
0.823885 -0.308843 -0.48724 160 160 121
0.82678 -0.308027 -0.500173 154 163 124
0.803601 -0.307107 -0.524626 132 136 113
0.820906 -0.307806 -0.488464 106 96 78
0.820931 -0.307523 -0.489899 116 104 79
0.821094 -0.306725 -0.490701 40 16 2
0.810228 -0.30302 -0.503688 88 92 83
0.809965 -0.302474 -0.503046 152 152 148
0.787207 -0.302919 -0.489582 52 37 12
0.831706 -0.300332 -0.500058 152 127 94
0.811439 -0.300984 -0.502854 90 88 80
0.809959 -0.300496 -0.502824 126 126 114
0.794136 -0.300538 -0.509394 90 92 84
0.827907 -0.29867 -0.507074 44 24 10
0.797325 -0.299059 -0.53103 24 22 6
0.827457 -0.296604 -0.51367 100 58 34
0.784998 -0.296894 -0.509246 84 42 26
0.789344 -0.296375 -0.509046 27 12 4
0.8286 -0.294667 -0.512587 113 71 50
0.80849 -0.29577 -0.518918 80 62 48
0.829247 -0.294027 -0.510994 176 145 130
0.828496 -0.293481 -0.51244 98 65 49
0.823366 -0.293281 -0.519501 116 96 78
0.809294 -0.292972 -0.523766 26 6 4
0.808267 -0.292296 -0.524071 96 62 49
0.795973 -0.293592 -0.536748 132 111 80
0.819054 -0.290691 -0.522168 158 140 133
0.824911 -0.290237 -0.528122 88 88 67
0.816566 -0.28701 -0.518258 80 58 55
0.825813 -0.288089 -0.531134 156 155 138
0.819895 -0.284488 -0.513207 60 32 28
0.798751 -0.289205 -0.54075 84 88 68
0.823874 -0.282385 -0.508348 119 94 89
0.814283 -0.282324 -0.516048 137 108 104
0.823346 -0.279171 -0.508446 32 9 5
0.82375 -0.274871 -0.502795 68 34 28
0.822138 -0.274405 -0.504636 50 20 15
0.815556 -0.276143 -0.511064 46 20 16
0.809232 -0.273302 -0.511541 112 67 60
0.815693 -0.271214 -0.507974 126 98 98
0.809071 -0.268247 -0.506865 122 89 82
0.809627 -0.268167 -0.506218 82 34 27
0.802413 -0.266375 -0.501393 129 92 86
0.809192 -0.263352 -0.502846 94 53 46
0.766183 -0.278849 -0.543483 114 104 90
0.812002 -0.262382 -0.5023 116 80 76
0.760084 -0.346377 -0.512503 100 94 50
0.782526 -0.359472 -0.468675 120 122 69
0.768558 -0.340081 -0.510708 158 158 112
0.821815 -0.315233 -0.512118 100 104 90
0.801189 -0.313306 -0.507296 152 155 110
0.767253 -0.313993 -0.494666 110 88 39
0.834877 -0.311434 -0.504449 64 44 14
0.792721 -0.309626 -0.497135 153 158 110
0.822186 -0.30787 -0.48349 108 98 80
0.821222 -0.307558 -0.490291 101 88 62
0.828244 -0.303732 -0.498565 85 71 42
0.787434 -0.304066 -0.48629 122 98 76
0.791358 -0.303973 -0.484724 136 128 92
0.792362 -0.303547 -0.493241 32 22 6
0.809531 -0.302549 -0.505042 154 154 151
0.812005 -0.302287 -0.50337 94 90 83
0.787201 -0.303036 -0.490339 60 42 16
0.809761 -0.302075 -0.506636 106 108 96
0.809822 -0.300382 -0.502823 118 118 108
0.797263 -0.299229 -0.531774 23 20 6
0.778003 -0.299506 -0.531054 146 144 106
0.800223 -0.297724 -0.535959 102 112 85
0.787846 -0.29623 -0.508896 76 50 40
0.789837 -0.29618 -0.507657 127 120 110
0.798158 -0.29724 -0.533798 92 96 58
0.788555 -0.293342 -0.509986 88 50 24
0.818253 -0.29108 -0.522487 121 100 92
0.819386 -0.290524 -0.520984 163 143 138
0.78641 -0.289825 -0.502234 103 78 56
0.823432 -0.285304 -0.512445 42 18 14
0.808826 -0.286525 -0.517216 28 7 4
0.789286 -0.281684 -0.494393 50 20 8
0.816187 -0.281244 -0.514267 122 99 98
0.816968 -0.277988 -0.510951 38 20 18
0.816084 -0.275997 -0.510636 120 98 96
0.815712 -0.275746 -0.509823 54 26 21
0.811186 -0.273565 -0.509822 113 75 72
0.822163 -0.270037 -0.500177 124 90 86
0.809336 -0.266962 -0.504676 108 78 72
0.79876 -0.265093 -0.500696 110 94 73
0.808904 -0.263458 -0.502919 81 36 28
0.809998 -0.262701 -0.502076 70 30 26
0.792339 -0.32123 -0.504292 158 159 112
0.79432 -0.319202 -0.505721 136 141 99
0.792172 -0.313097 -0.511038 66 69 38
0.78126 -0.311202 -0.499548 130 110 68
0.823934 -0.30897 -0.486464 162 171 127
0.82549 -0.308004 -0.488521 167 170 129
0.822645 -0.307711 -0.486206 165 164 125
0.823797 -0.306917 -0.487453 102 74 52
0.786059 -0.307541 -0.491635 174 159 113
0.829243 -0.304598 -0.499487 164 162 126
0.797888 -0.30393 -0.52711 92 88 64
0.791319 -0.304073 -0.486643 157 150 112
0.811987 -0.302341 -0.503356 88 84 78
0.830538 -0.301472 -0.498429 155 136 113
0.829644 -0.301024 -0.500724 59 33 14
0.800479 -0.297658 -0.53487 114 124 98
0.825885 -0.294926 -0.512413 122 84 62
0.790719 -0.294898 -0.509369 92 79 82
0.819672 -0.290267 -0.519409 146 128 122
0.790276 -0.289992 -0.512663 62 26 17
0.79269 -0.289851 -0.515528 144 98 76
0.817108 -0.287031 -0.517063 58 36 33
0.815941 -0.275477 -0.508858 52 24 20
0.828374 -0.278106 -0.532869 65 37 14
0.821662 -0.270789 -0.502196 122 86 82
0.80885 -0.272733 -0.50979 126 104 103
0.808549 -0.272391 -0.510778 114 92 88
0.820501 -0.266215 -0.499315 92 60 58
0.810689 -0.266232 -0.499531 99 63 58
0.809761 -0.262934 -0.501333 116 78 72
0.812581 -0.262261 -0.501699 66 29 25
0.78872 -0.349911 -0.486799 142 144 97
0.842181 -0.332211 -0.530083 114 116 72
0.778089 -0.332466 -0.511306 111 116 69
0.785567 -0.32013 -0.512368 108 104 82
0.822658 -0.316787 -0.516968 78 84 66
0.791952 -0.313549 -0.511641 96 98 70
0.766319 -0.314524 -0.486701 106 82 37
0.834879 -0.311596 -0.504351 54 35 8
0.816325 -0.310695 -0.513017 74 77 62
0.823523 -0.30899 -0.487817 162 171 127
0.826393 -0.307621 -0.498346 164 176 134
0.821295 -0.307679 -0.49077 158 149 114
0.82323 -0.307042 -0.489981 106 79 55
0.820241 -0.306526 -0.492587 31 14 3
0.831874 -0.30379 -0.51074 164 124 110
0.792517 -0.30368 -0.492355 36 24 9
0.79062 -0.303368 -0.481308 58 28 11
0.787389 -0.303213 -0.489255 47 26 4
0.809384 -0.30241 -0.504663 155 154 154
0.809939 -0.302288 -0.505455 119 120 110
0.827706 -0.298991 -0.513338 86 42 15
0.828245 -0.298267 -0.506206 82 63 48
0.797277 -0.299254 -0.531386 24 21 6
0.829222 -0.297276 -0.511617 128 80 64
0.82665 -0.297214 -0.510968 40 19 8
0.797102 -0.298759 -0.532312 110 105 84
0.7971 -0.29832 -0.532235 30 27 10
0.798073 -0.297375 -0.534322 82 87 48
0.82552 -0.294156 -0.513474 171 147 136
0.82782 -0.293484 -0.514285 106 74 58
0.82401 -0.292698 -0.520874 144 120 104
0.809398 -0.292783 -0.52149 101 71 67
0.799478 -0.294488 -0.537054 121 127 104
0.78644 -0.28971 -0.500744 88 60 38
0.800571 -0.29276 -0.534815 148 110 88
0.808054 -0.290078 -0.520202 173 144 142
0.819693 -0.284579 -0.513616 64 36 32
0.81616 -0.281346 -0.514117 106 82 81
0.807888 -0.281859 -0.517125 96 68 61
0.821742 -0.270748 -0.502033 116 80 77
0.809617 -0.268181 -0.506636 78 27 22
0.810005 -0.263023 -0.503015 70 28 24
0.808313 -0.262393 -0.501514 120 74 58
0.809062 -0.261912 -0.503778 97 60 46
0.834568 -0.311059 -0.507953 144 108 77
0.806368 -0.309836 -0.520547 87 86 56
0.834335 -0.310238 -0.504543 66 50 20
0.825653 -0.308092 -0.488021 160 160 123
0.820802 -0.307517 -0.491564 126 117 86
0.824321 -0.306976 -0.486064 110 83 58
0.788111 -0.305824 -0.485435 164 150 114
0.82921 -0.304464 -0.499476 164 162 126
0.782027 -0.301897 -0.508312 158 155 103
0.809899 -0.300045 -0.500899 118 118 109
0.811313 -0.299726 -0.500836 79 77 65
0.826513 -0.297354 -0.511072 38 19 8
0.797038 -0.2988 -0.531668 76 70 55
0.8193 -0.296267 -0.515531 56 53 38
0.790193 -0.295142 -0.510559 131 124 128
0.809376 -0.293298 -0.52429 15 6 4
0.799445 -0.294532 -0.536696 101 110 83
0.795766 -0.294036 -0.535895 49 17 6
0.82316 -0.291757 -0.527485 44 46 24
0.813543 -0.291427 -0.522015 146 107 88
0.807609 -0.290643 -0.517623 42 14 10
0.808218 -0.29004 -0.519409 174 144 141
0.81759 -0.286222 -0.515518 16 8 4
0.788226 -0.28368 -0.493443 88 60 40
0.817309 -0.283677 -0.51423 32 14 10
0.8086 -0.278489 -0.512416 113 87 81
0.815923 -0.275487 -0.510153 66 44 42
0.829514 -0.278324 -0.532272 82 48 25
0.829664 -0.276911 -0.529752 66 36 12
0.822319 -0.270833 -0.501628 84 48 41
0.808499 -0.268221 -0.507556 88 56 48
0.799165 -0.265428 -0.500514 62 46 32
0.808414 -0.263448 -0.503396 75 28 15
0.809944 -0.263209 -0.503519 74 28 24
0.812236 -0.262434 -0.50207 90 54 50
0.791372 -0.346547 -0.487943 102 108 73
0.774651 -0.331053 -0.512819 62 66 38
0.836973 -0.31202 -0.502497 118 100 65
0.828226 -0.308783 -0.498241 164 178 134
0.825576 -0.308032 -0.488851 167 174 132
0.789568 -0.304283 -0.489468 56 25 4
0.797349 -0.303405 -0.528132 38 28 13
0.788929 -0.303439 -0.488529 107 86 66
0.789581 -0.303289 -0.49461 102 82 62
0.809163 -0.299922 -0.504092 122 122 115
0.810757 -0.299823 -0.504049 40 38 28
0.830215 -0.298432 -0.513015 113 115 83
0.788078 -0.299255 -0.510578 58 54 38
0.827327 -0.297421 -0.508873 44 26 15
0.777541 -0.2994 -0.531501 156 150 120
0.796794 -0.29873 -0.533554 64 58 44
0.789195 -0.296564 -0.506379 44 28 20
0.808194 -0.295745 -0.519972 65 46 31
0.795622 -0.29423 -0.536782 50 18 8
0.815938 -0.290484 -0.522541 132 100 88
0.805278 -0.289158 -0.520509 85 38 15
0.789915 -0.276555 -0.48791 124 103 78
0.817276 -0.278111 -0.510663 38 18 16
0.82794 -0.276883 -0.528543 71 46 34
0.827991 -0.278089 -0.533534 65 38 16
0.809167 -0.267592 -0.505458 101 70 64
0.797423 -0.263721 -0.493341 142 110 90
0.807821 -0.262715 -0.502445 149 101 84
0.813271 -0.261779 -0.500882 138 108 105
0.772454 -0.333906 -0.514192 116 110 88
0.774601 -0.331283 -0.511831 60 64 37
0.767176 -0.314118 -0.493924 108 86 38
0.826561 -0.308231 -0.485316 164 168 128
0.827185 -0.307113 -0.488946 164 175 130
0.824123 -0.30675 -0.488543 116 88 56
0.828254 -0.304369 -0.502786 166 167 128
0.792069 -0.304258 -0.481353 168 166 122
0.797398 -0.303478 -0.525835 40 27 12
0.783792 -0.303593 -0.507586 139 94 70
0.787098 -0.303491 -0.491594 83 61 34
0.785253 -0.303183 -0.507047 167 154 106
0.806899 -0.302265 -0.509014 142 138 128
0.806879 -0.301033 -0.508958 64 70 54
0.797093 -0.299873 -0.529024 30 24 10
0.797 -0.298709 -0.531025 45 38 26
0.789863 -0.296206 -0.507438 109 102 91
0.80798 -0.290122 -0.520943 175 146 144
0.798932 -0.291395 -0.53843 37 46 28
0.794791 -0.290532 -0.541073 93 58 40
0.823647 -0.279231 -0.506645 64 38 34
0.829177 -0.277815 -0.529596 170 160 151
0.813485 -0.265815 -0.503214 110 72 73
0.807495 -0.262674 -0.502752 147 100 84
0.806788 -0.319041 -0.501266 176 179 128
0.770988 -0.31543 -0.499823 94 87 43
0.767182 -0.3142 -0.493678 112 90 43
0.835233 -0.311708 -0.501659 52 38 13
0.825966 -0.31032 -0.487936 152 152 118
0.821724 -0.307772 -0.487241 132 122 96
0.78383 -0.30757 -0.503383 168 168 118
0.793267 -0.303934 -0.488751 24 15 4
0.789093 -0.303429 -0.481418 154 131 110
0.785316 -0.303215 -0.510025 158 146 96
0.782058 -0.30265 -0.51597 158 158 104
0.808104 -0.299699 -0.501741 105 108 90
0.831429 -0.298661 -0.511609 130 146 105
0.789734 -0.29633 -0.50751 84 74 64
0.803586 -0.294966 -0.535317 14 7 4
0.808068 -0.293571 -0.525922 78 40 28
0.795415 -0.29446 -0.536694 58 22 11
0.794907 -0.29274 -0.539457 158 111 82
0.822351 -0.285406 -0.513687 75 49 44
0.791649 -0.271709 -0.483996 100 76 57
0.808252 -0.273082 -0.511392 100 68 61
0.81044 -0.263738 -0.503909 66 24 22
0.810633 -0.262185 -0.501852 135 92 84
0.846202 -0.334686 -0.525221 114 117 72
0.787808 -0.32477 -0.506702 110 111 66
0.828314 -0.32187 -0.518696 76 84 59
0.826636 -0.320217 -0.516854 92 98 79
0.821242 -0.314818 -0.513626 101 104 92
0.79197 -0.313596 -0.510163 109 111 86
0.792632 -0.309571 -0.497518 120 122 72
0.828141 -0.298208 -0.506523 144 120 107
0.79064 -0.299349 -0.50165 25 15 4
0.788705 -0.281474 -0.495247 71 56 36
0.815565 -0.26683 -0.504329 120 90 88
0.844305 -0.333779 -0.528679 126 128 82
0.844471 -0.333607 -0.522021 173 174 126
0.828371 -0.321919 -0.518612 74 83 58
0.826498 -0.320304 -0.517642 88 95 76
0.809643 -0.303553 -0.50621 110 112 106
0.796439 -0.301993 -0.51984 85 88 74
0.786698 -0.289508 -0.50237 72 46 24
0.813318 -0.289978 -0.523937 150 109 93
0.808216 -0.281563 -0.515327 114 88 82
0.770638 -0.338197 -0.511997 163 162 116
0.82341 -0.317241 -0.515249 68 76 59
0.783239 -0.30748 -0.506784 109 78 56
0.809366 -0.303595 -0.506776 115 116 112
0.809995 -0.302374 -0.505285 114 116 107
0.828351 -0.296495 -0.510708 130 86 64
0.782841 -0.328852 -0.508312 126 129 90
0.785343 -0.326717 -0.507884 119 120 76
0.781734 -0.312266 -0.499698 151 144 105
0.811734 -0.298914 -0.502711 12 7 2
0.815885 -0.275053 -0.510313 98 78 76
0.794074 -0.337006 -0.496414 96 103 68
0.767634 -0.313938 -0.496844 96 72 26
0.7892 -0.296428 -0.507702 46 30 22
0.797948 -0.28399 -0.518199 27 6 4
0.807474 -0.272121 -0.511695 54 14 6
0.785203 -0.326905 -0.507091 128 128 84
0.835736 -0.310305 -0.505497 123 90 58
0.782664 -0.310899 -0.501138 118 92 66
0.808035 -0.266992 -0.505941 59 18 12
0.780358 -0.330639 -0.510696 114 117 69
0.771149 -0.315588 -0.499142 71 62 23
0.834917 -0.310045 -0.507936 108 73 42
0.834915 -0.307774 -0.509547 140 101 81
0.829671 -0.276989 -0.529677 82 54 31
0.828731 -0.301833 -0.510413 124 110 74
0.833044 -0.328301 -0.515375 109 111 74
0.812361 -0.261946 -0.501619 86 52 48
0.835708 -0.310251 -0.50609 114 80 51
0.819904 -0.284277 -0.513158 54 25 22
0.811834 -0.262562 -0.50191 103 66 64
0.812438 -0.262135 -0.501474 76 40 36
0.83713 -0.316553 -0.506575 84 76 42
0.809184 -0.268027 -0.506146 126 96 94
0.812505 -0.262377 -0.502103 82 48 43
0.814388 -0.261411 -0.500785 89 54 48
0.808345 -0.268017 -0.505792 74 25 16
0.814157 -0.261623 -0.500865 88 54 48
0.809061 -0.267806 -0.505158 102 60 53
0.773381 -0.336258 -0.511283 107 104 58
0.816023 -0.286268 -0.517585 28 10 6
0.808271 -0.299538 -0.500774 114 116 102
0.814162 -0.261737 -0.498952 108 74 71
0.830352 -0.310643 -0.503056 147 158 118
0.808619 -0.279325 -0.437633 95 66 56
0.791704 -0.270336 -0.480804 138 116 94
0.832058 -0.281601 -0.489334 47 22 14
0.824356 -0.285636 -0.46621 88 60 54
0.767165 -0.340163 -0.509013 70 71 50
0.828141 -0.303481 -0.520119 88 58 44
0.808514 -0.281513 -0.514319 123 99 96
0.786603 -0.289938 -0.504912 101 74 54
0.786698 -0.288042 -0.505449 138 126 100
0.807811 -0.288523 -0.511079 86 45 28
0.773225 -0.336381 -0.510944 106 104 63
0.811277 -0.298549 -0.502091 48 48 39
0.808536 -0.291147 -0.520205 64 34 24
0.773271 -0.336228 -0.511745 119 117 72
0.825153 -0.298746 -0.518501 69 41 23
0.830822 -0.292112 -0.498737 97 74 54
0.815913 -0.270399 -0.506739 122 98 94
0.816141 -0.265216 -0.501442 112 84 82
0.79019 -0.297767 -0.499613 74 62 42
0.766777 -0.314129 -0.489772 117 100 50
0.790806 -0.307522 -0.48041 144 141 106
0.790097 -0.297656 -0.499348 106 97 77
0.80872 -0.272706 -0.509612 106 82 75
0.794922 -0.298489 -0.590278 72 66 38
0.786915 -0.291192 -0.498835 82 46 22
0.816111 -0.291882 -0.522871 36 26 11
0.826344 -0.278547 -0.53253 172 164 155
0.816369 -0.265601 -0.500467 101 72 68
0.788487 -0.308691 -0.483921 132 126 88
0.823231 -0.291876 -0.527181 130 121 101
0.788828 -0.308844 -0.479248 145 141 102
0.790138 -0.30753 -0.482525 151 151 106
0.786543 -0.289381 -0.496966 98 68 45
0.787203 -0.2878 -0.495076 138 121 94
0.808576 -0.276224 -0.512247 104 64 56
0.808427 -0.268599 -0.508124 70 25 16
0.809349 -0.263837 -0.504715 121 85 76
0.812529 -0.26212 -0.501567 78 40 32
0.808166 -0.28412 -0.516787 109 90 84
0.808483 -0.268515 -0.507612 87 38 26
0.790135 -0.277299 -0.548303 93 84 66
0.808499 -0.268272 -0.506888 74 27 16
0.802312 -0.266705 -0.502879 116 78 68
0.808453 -0.267934 -0.50606 66 23 12
0.802896 -0.26495 -0.497999 90 56 52
0.766503 -0.279369 -0.544726 125 114 98
0.814289 -0.261592 -0.501424 90 58 50
0.808708 -0.272401 -0.509832 98 71 66
0.808207 -0.290056 -0.518717 160 132 128
0.808602 -0.27236 -0.509289 93 56 50
0.802255 -0.266042 -0.50138 87 48 40
0.814815 -0.261773 -0.499135 112 78 72
0.815861 -0.262208 -0.498409 66 30 27
0.80831 -0.289897 -0.518753 159 128 124
0.802336 -0.26677 -0.502274 100 52 42
0.765657 -0.278707 -0.54223 100 90 70
0.808036 -0.292775 -0.521051 84 54 44
0.802725 -0.265482 -0.499687 106 76 74
0.784998 -0.35149 -0.493791 96 99 42
0.785015 -0.351448 -0.493723 86 90 32
0.784994 -0.293426 -0.508152 108 64 44
0.761033 -0.345989 -0.493302 52 56 28
0.771205 -0.337757 -0.511509 148 150 108
0.769972 -0.336186 -0.512014 78 81 59
0.786165 -0.294028 -0.508959 160 120 89
0.818236 -0.338019 -0.501636 146 154 106
0.818607 -0.338984 -0.499046 128 135 90
0.806916 -0.323157 -0.560659 104 108 64
0.795022 -0.51068 0.932546 88 92 79
0.80026 -0.301245 -0.478756 62 68 53
0.774593 -0.274775 -0.402547 45 11 4
0.822435 -0.268922 -0.469519 120 95 96
0.802483 -0.258826 -0.449961 58 16 8
0.821428 -0.270549 -0.517463 83 54 52
0.822511 -0.354168 -0.265285 70 76 58
0.815265 -0.353777 -0.219776 72 76 62
0.773446 -0.30476 -0.34138 53 60 48
0.805293 -0.260394 -0.47359 115 79 74
0.835126 -0.29108 -0.353527 91 49 22
0.821738 -0.271347 -0.520027 84 52 48
0.822601 -0.273252 -0.530297 87 62 60
0.822396 -0.372311 -0.147393 64 70 52
0.816157 -0.349813 -0.250958 77 82 68
0.831961 -0.26873 0.0637915 66 40 28
0.822427 -0.304141 -0.548122 99 80 62
0.821965 -0.303604 -0.548516 28 10 4
0.845405 -0.196308 0.983686 72 34 27
0.796911 -0.307317 -0.565523 64 54 19
0.672946 -0.245955 -0.391662 144 132 114
0.819728 -0.269542 -0.523007 81 52 48
0.818556 -0.268024 -0.517559 122 98 96
0.816879 -0.268709 -0.523656 77 40 34
0.787444 -0.325005 -0.558776 66 72 38
0.802129 -0.303625 -0.472493 118 114 101
0.749691 -0.284357 -0.0424961 75 60 52
0.833512 -0.289453 -0.263956 79 40 24
0.833017 -0.288378 -0.259069 62 27 8
0.809783 -0.264978 -0.510615 105 65 54
0.783284 -0.325213 -0.534682 53 54 28
0.682292 -0.2172 0.37219 66 25 10
0.725871 -0.273214 -0.0695164 18 9 6
0.782542 -0.327006 -0.544192 52 52 32
0.783631 -0.325514 -0.54291 46 50 26
0.78276 -0.328926 -0.550476 106 108 59
0.826854 -0.280559 -0.128941 50 25 14
0.78503 -0.326862 -0.545804 86 84 45
0.813007 -0.264309 -0.509422 77 34 24
0.78557 -0.326802 -0.536747 90 90 46
0.815716 -0.267312 -0.519735 108 69 63
0.786914 -0.324147 -0.555868 54 52 25
0.830961 -0.3492 -0.505147 88 96 45
0.883854 -0.39408 -0.32113 157 156 110
0.909045 -0.421506 -0.259383 61 69 35
0.865221 -0.385911 -0.320378 124 128 78
0.797845 -0.306891 -0.568151 48 40 8
0.785285 -0.326955 -0.535857 84 80 43
0.784665 -0.326452 -0.561797 61 58 22
0.809822 -0.317519 -0.584868 104 108 56
0.802207 -0.32729 -0.533174 92 102 66
0.816095 -0.265997 -0.514528 74 40 34
0.775008 -0.334939 -0.53296 102 107 64
0.806565 -0.323662 -0.541923 90 98 54
0.805543 -0.357704 -0.133723 60 66 52
0.829662 -0.290702 -0.345238 32 6 0
0.807861 -0.32124 -0.575328 82 88 40
0.782209 -0.329192 -0.549206 112 116 73
0.808031 -0.320709 -0.576633 100 102 52
0.789048 -0.323339 -0.544707 44 52 18
0.781645 -0.328517 -0.539694 94 90 73
0.717783 -0.270157 -0.0177033 16 6 3
0.776486 -0.271931 -0.415574 30 6 1
0.784881 -0.324595 -0.546956 60 60 30
0.855843 -0.222835 0.630484 144 118 112
0.805529 -0.246577 -0.32148 122 95 88
0.823759 -0.276213 -0.540751 84 56 48
0.791677 -0.305847 -0.531951 108 90 54
0.784551 -0.327822 -0.527646 112 112 63
0.834885 -0.298587 -0.34263 60 26 8
0.820733 -0.269154 -0.512806 59 25 23
0.779481 -0.331002 -0.539286 40 48 24
0.760739 -0.276072 -0.350176 61 22 8
0.789858 -0.321745 -0.563439 74 75 54
0.813161 -0.322609 -0.506267 61 69 36
0.749637 -0.513469 0.948271 151 155 120
0.821064 -0.355025 -0.463715 125 131 86
0.768269 -0.338261 -0.497505 78 82 56
0.776033 -0.42098 0.0156534 132 138 108
0.530807 -0.171677 0.248466 85 87 60
0.784643 -0.274954 -0.444471 50 18 9
0.778499 -0.430823 0.326828 150 154 116
0.776314 -0.333953 -0.511948 87 85 53
0.812949 -0.313103 -0.580314 70 82 40
0.789016 -0.401986 0.105837 152 159 118
0.564904 -0.185818 0.138769 84 84 58
0.624487 -0.169019 -0.0610017 68 64 32
0.787456 -0.325138 -0.546727 98 96 58
0.728251 -0.266643 -0.483097 104 92 72
0.809779 -0.254828 -0.405825 114 96 92
0.820903 -0.267547 -0.505038 110 81 80
0.780746 -0.329853 -0.553052 72 69 30
0.80356 -0.261445 -0.461819 48 13 6
0.806235 -0.263242 -0.489746 48 15 8
0.828676 -0.285337 -0.52143 43 18 10
0.82452 -0.272249 -0.523891 96 70 60
0.785774 -0.325443 -0.548127 39 42 18
0.792065 -0.30594 -0.533549 89 66 38
0.781178 -0.32847 -0.527489 79 82 55
0.788898 -0.320464 -0.508138 70 74 48
0.780937 -0.327555 -0.528076 80 80 53
0.823569 -0.269921 -0.513617 99 72 68
0.794602 -0.308309 -0.557906 54 43 6
0.83339 -0.301238 -0.497558 118 94 66
0.841335 -0.290532 -0.21761 114 73 50
0.78556 -0.326143 -0.542816 87 88 66
0.813591 -0.320722 -0.511461 102 108 64
0.782007 -0.314628 -0.411188 118 120 86
0.810269 -0.262509 -0.506586 152 116 104
0.822625 -0.304294 -0.55084 109 92 79
0.763114 -0.268663 -0.329734 106 57 44
0.79725 -0.238572 -0.228275 44 16 13
0.704128 -0.266294 0.139251 10 6 1
0.802057 -0.277642 -0.530963 138 118 98
0.826662 -0.284961 -0.196203 76 48 35
0.774958 -0.268744 -0.388015 102 62 52
0.770644 -0.250156 -0.23606 114 94 88
0.810015 -0.332337 -0.443151 120 126 78
0.810477 -0.326346 -0.461888 120 127 84
0.803921 -0.324767 -0.542679 92 102 67
0.824609 -0.272247 -0.522304 114 88 78
0.7975 -0.350053 -0.348607 110 116 78
0.878499 -0.553133 0.765028 74 79 62
0.809355 -0.25305 -0.386534 97 76 70
0.936559 -0.503738 0.0528942 156 157 112
0.832658 -0.31264 -0.519252 99 105 63
0.91756 -0.24418 0.573658 62 42 36
-1.00647 0.278151 4.58373 110 104 82
0.795038 -0.307079 -0.562221 95 76 27
0.832145 -0.278352 -0.448191 37 18 10
0.824132 -0.260957 -0.419976 80 48 44
0.826205 -0.27275 -0.519958 91 64 57
0.819044 -0.265813 -0.511289 120 98 97
0.835891 -0.316237 -0.519522 72 70 32
0.793989 -0.306336 -0.537633 71 56 12
0.815939 -0.306274 -0.545754 152 154 118
0.826053 -0.307402 -0.538387 134 133 94
0.851204 -0.289085 -0.238668 126 103 90
0.833212 -0.29232 -0.490918 36 20 11
0.832042 -0.289005 -0.50763 98 84 67
0.804183 -0.255182 -0.328279 112 87 82
0.827494 -0.280058 -0.531591 100 80 66
0.807833 -0.26716 -0.504205 112 80 73
0.825393 -0.272364 -0.522578 74 47 40
0.824134 -0.270314 -0.520956 109 88 84
0.816639 -0.266527 -0.516464 70 33 27
0.814729 -0.317947 -0.536448 134 139 95
0.8119 -0.412015 0.179028 58 62 46
0.797715 -0.306339 -0.547671 132 122 77
0.81717 -0.304987 -0.557857 84 66 42
0.825563 -0.307365 -0.540918 76 74 36
0.81831 -0.30436 -0.56462 166 158 118
0.840176 -0.302531 -0.436844 110 86 62
0.833324 -0.29225 -0.490043 28 13 6
0.79755 -0.276374 -0.499886 40 5 0
0.831424 -0.277175 -0.49132 45 18 10
0.816489 -0.263089 -0.503549 73 35 28
0.794386 -0.308634 -0.554233 98 92 49
0.781157 -0.304092 -0.502466 144 112 75
0.785497 -0.290041 -0.470251 69 48 34
0.830695 -0.277412 -0.469944 60 44 42
0.816794 -0.317711 -0.516419 146 151 110
0.827564 -0.269139 0.145403 30 14 8
0.824642 -0.271592 -0.522868 80 54 44
0.781336 -0.307289 -0.44128 146 140 79
0.833376 -0.303282 -0.481317 60 31 12
0.8147 -0.318236 -0.534358 80 86 47
0.816506 -0.319083 -0.503285 145 148 114
0.812986 -0.425676 0.267613 72 76 61
0.832236 -0.279704 -0.456637 108 88 78
0.80188 -0.273446 -0.513362 120 80 70
0.82341 -0.270459 -0.519398 72 50 47
0.820668 -0.268902 -0.513905 58 26 24
0.816599 -0.265189 -0.511919 73 37 31
0.814557 -0.318922 -0.530866 108 114 70
0.823435 -0.418234 0.124558 63 68 49
0.834002 -0.292126 -0.48235 38 22 14
0.7362 -0.257885 -0.120974 102 52 20
0.825132 -0.272785 -0.523268 100 74 68
0.819029 -0.304499 -0.560941 159 139 96
0.7846 -0.288632 -0.48959 159 134 112
0.809505 -0.252562 -0.382961 50 22 18
0.811555 -0.266938 -0.51868 101 55 41
0.820486 -0.322494 -0.496737 72 74 50
0.824525 -0.470588 0.457997 52 58 38
0.839935 -0.3028 -0.439962 100 76 50
0.845829 -0.302317 -0.311082 24 12 6
0.849414 -0.276467 -0.0655761 151 114 102
0.801692 -0.318031 -0.422616 146 154 110
0.843392 -0.301037 -0.376616 120 94 66
0.855059 -0.2701 0.0692141 150 114 102
0.831211 -0.288534 -0.512231 48 30 15
0.807559 -0.246601 -0.323742 42 19 15
0.820551 -0.316063 -0.588064 125 137 93
0.833188 -0.352298 -0.384545 66 73 50
0.81726 -0.299862 -0.627313 116 115 86
0.858658 -0.337545 -0.372604 99 104 63
0.797018 -0.306538 -0.544671 126 114 71
0.827511 -0.308289 -0.529241 113 122 83
0.811325 -0.26452 -0.460332 41 8 2
0.809061 -0.318818 -0.581413 94 100 53
0.805867 -0.322083 -0.565087 118 118 73
0.818131 -0.316522 -0.571623 80 90 52
0.826345 -0.308437 -0.528654 67 68 32
0.883356 -0.306814 0.11177 64 48 32
0.811746 -0.264034 -0.44482 53 25 20
0.820533 -0.315806 -0.588955 123 136 90
0.793486 -0.307655 -0.55776 102 84 36
0.797495 -0.306389 -0.546655 110 98 58
0.800673 -0.305487 -0.552612 65 64 34
0.800506 -0.316688 -0.370885 62 69 57
0.777495 -0.289808 -0.441997 76 58 44
0.834312 -0.282252 -0.435068 103 86 77
0.811022 -0.263377 -0.443922 112 92 88
0.57951 -0.162809 -0.0171531 106 96 71
0.809231 -0.268747 -0.513167 57 18 10
0.820648 -0.316934 -0.586004 96 109 65
0.82779 -0.314043 -0.592591 146 148 104
0.816476 -0.319887 -0.498848 144 148 111
0.795897 -0.307092 -0.562987 124 110 57
0.793586 -0.307589 -0.557855 91 68 24
0.851129 -0.332683 -0.415366 75 68 31
0.859424 -0.338201 -0.364647 84 81 46
0.798446 -0.305411 -0.545122 145 137 82
0.781872 -0.279471 -0.434641 100 52 37
0.81336 -0.264355 -0.479607 100 73 70
0.822743 -0.304815 -0.549081 110 94 78
0.858155 -0.29591 -0.149293 82 56 40
0.829841 -0.275954 -0.46741 57 34 28
0.817874 -0.315571 -0.574704 74 84 42
0.821478 -0.318202 -0.530236 64 68 47
0.792663 -0.308053 -0.554919 109 88 42
0.818161 -0.3049 -0.561022 117 92 60
0.829618 -0.276057 -0.469515 57 34 26
0.816697 -0.320829 -0.548903 153 158 109
0.840283 -0.32047 -0.446364 146 156 115
0.770496 -0.287518 -0.43868 119 94 71
0.834712 -0.283188 -0.465946 34 16 6
0.793581 -0.281887 -0.509444 120 98 76
0.454831 -0.172434 0.506559 160 149 130
0.720489 -0.24693 -0.00515965 96 50 28
0.829508 -0.30971 -0.517998 156 164 123
0.816429 -0.263177 -0.504044 76 38 30
0.823414 -0.265439 -0.454353 46 22 20
0.803159 -0.302902 -0.552499 92 82 50
0.774393 -0.300729 -0.472337 124 102 66
0.742933 -0.283375 -0.250756 60 44 29
0.787423 -0.300805 -0.488356 83 72 54
0.790058 -0.306782 -0.469076 114 108 75
0.818191 -0.30409 -0.569348 164 155 120
0.778144 -0.288448 -0.461219 102 60 34
0.833914 -0.287127 -0.449021 100 79 71
0.835463 -0.279707 -0.414283 36 18 14
0.800445 -0.258701 -0.44052 122 86 78
0.81977 -0.263925 -0.500571 122 101 98
0.815872 -0.306037 -0.547347 145 145 112
0.825348 -0.306838 -0.546125 134 134 96
0.797586 -0.273612 -0.494478 52 16 6
0.870836 -0.277919 0.332263 128 86 66
0.830762 -0.285646 -0.478096 102 86 80
0.798923 -0.27514 -0.503452 52 16 6
0.79409 -0.306518 -0.538042 89 78 33
0.850413 -0.305445 -0.288675 88 67 52
0.834142 -0.283275 -0.444357 88 72 64
0.828377 -0.280904 -0.528301 82 58 42
0.798687 -0.305941 -0.552327 123 110 69
0.823369 -0.305373 -0.554289 155 164 114
0.781765 -0.32976 -0.532174 144 146 101
0.815285 -0.319401 -0.539228 108 110 69
0.832395 -0.29893 -0.510972 96 86 63
0.834925 -0.281407 -0.428651 121 105 98
0.775029 -0.333706 -0.526669 58 57 34
0.794839 -0.307269 -0.561832 86 64 16
0.838592 -0.302633 -0.456004 104 78 52
0.851542 -0.285616 -0.0263913 117 76 52
0.778336 -0.288292 -0.461057 95 52 26
0.79766 -0.306134 -0.542635 104 92 50
0.828797 -0.30589 -0.504525 76 54 27
0.82546 -0.306794 -0.547403 144 153 112
0.664127 -0.21189 -0.239974 118 107 87
0.801192 -0.300536 -0.453799 67 65 53
0.792116 -0.293012 -0.530304 161 148 126
0.820365 -0.271059 -0.521721 82 50 48
0.644038 -0.375444 0.21542 80 76 42
0.821137 -0.295653 -0.594706 84 67 56
0.825515 -0.301488 -0.567718 110 86 64
0.750142 -0.386698 -0.256391 107 112 72
0.821706 -0.303219 -0.55909 28 10 1
0.823873 -0.261494 -0.432207 42 17 14
0.823413 -0.266681 -0.501083 102 77 74
0.810313 -0.269034 -0.52623 152 105 86
0.793379 -0.307361 -0.499897 34 38 8
0.798024 -0.30928 -0.554392 106 105 52
0.798842 -0.306541 -0.480046 40 32 14
0.747204 -0.303727 -0.422497 58 62 46
0.799209 -0.299095 -0.545698 102 86 62
0.789468 -0.278277 0.475337 18 20 5
0.832633 -0.299002 -0.502775 69 52 34
0.747834 -0.279547 -0.0573299 22 10 7
0.789366 -0.290244 -0.508877 87 54 30
0.791447 -0.290258 -0.51464 164 136 122
0.783428 -0.281082 -0.453204 42 10 2
0.743274 -0.238502 -0.0410168 99 70 64
0.834765 -0.283112 -0.439656 100 79 68
0.792348 -0.28303 -0.500313 42 10 2
0.789622 -0.280443 -0.479774 110 72 65
0.787421 -0.274081 -0.458478 128 94 80
0.795628 -0.271414 -0.48287 48 13 4
0.802377 -0.25472 -0.415234 117 66 52
0.821521 -0.269115 -0.495611 92 70 68
0.822476 -0.260744 -0.462734 126 101 100
0.803764 -0.269022 -0.511715 124 91 81
0.805618 -0.261691 -0.479087 130 96 88
0.805925 -0.261923 -0.484887 60 22 14
0.806232 -0.262357 -0.488715 56 17 10
0.821776 -0.261145 -0.4805 128 100 99
0.816356 -0.260298 -0.495084 68 34 28
0.756889 -1.26166 6.39762 58 62 43
0.794266 -0.311975 -0.508565 52 54 22
0.823367 -0.305291 -0.556266 154 162 118
0.764065 -0.305809 -0.444087 78 75 52
0.800015 -0.306237 -0.48972 56 50 30
0.822373 -0.304828 -0.537502 32 16 2
0.777098 -0.301979 -0.484994 86 60 35
0.867874 -0.33167 -0.00732212 122 111 74
0.792431 -0.299892 -0.512553 115 96 78
0.832976 -0.299061 -0.499423 112 95 76
0.826805 -0.283475 -0.155067 80 54 41
0.835653 -0.294037 -0.481795 110 108 88
0.832113 -0.29487 -0.511501 87 74 60
0.831775 -0.293881 -0.50829 112 99 86
0.787383 -0.283472 -0.476608 108 75 67
0.785487 -0.282104 -0.463233 46 11 4
0.828099 -0.292445 -0.538603 44 22 10
0.792703 -0.283287 -0.502015 44 11 2
0.78419 -0.255745 -0.327072 39 12 4
0.814175 -0.315403 -0.533722 110 116 74
0.817202 -0.304971 -0.557968 76 58 38
0.823398 -0.305368 -0.555224 154 162 118
0.784258 -0.293833 -0.483129 121 107 102
0.737253 -0.276395 0.0264671 39 26 21
0.873115 -0.194351 2.40372 84 58 45
0.782547 -0.289753 -0.479825 98 53 24
0.840507 -0.293229 -0.428613 56 33 19
0.793331 -0.289159 -0.52153 143 120 102
0.83372 -0.28601 -0.439436 84 66 60
0.871985 -0.148791 1.0693 130 112 106
0.829613 -0.288372 -0.518623 40 22 14
0.825343 -0.287322 -0.54171 56 36 30
0.797581 -0.306205 -0.549574 92 77 50
0.802131 -0.304215 -0.49529 33 26 8
0.780674 -0.293088 -0.467682 96 84 78
0.831478 -0.296963 -0.515945 120 120 96
